x,y,z,r,g,b
315301.656250,4834422.500000,92.866302,0.8,0.8,0.8
315380.593750,4834358.000000,87.143547,0.8,0.8,0.8
315299.937500,4834354.500000,100.239616,0.8,0.8,0.8
315314.562500,4834383.000000,104.963142,0.8,0.8,0.8
315366.437500,4834370.000000,88.275131,0.8,0.8,0.8
315301.718750,4834355.000000,94.439850,0.8,0.8,0.8
315296.937500,4834369.000000,113.921165,0.8,0.8,0.8
315379.812500,4834376.500000,81.620735,0.8,0.8,0.8
315388.562500,4834367.500000,83.079651,0.8,0.8,0.8
315322.125000,4834393.500000,101.014725,0.8,0.8,0.8
315337.406250,4834369.000000,99.389832,0.8,0.8,0.8
315357.500000,4834351.000000,81.569199,0.8,0.8,0.8
315305.812500,4834409.000000,85.531097,0.8,0.8,0.8
315355.312500,4834394.000000,102.197136,0.8,0.8,0.8
315269.968750,4834323.500000,94.037102,0.8,0.8,0.8
315338.312500,4834361.500000,81.502319,0.8,0.8,0.8
315338.531250,4834367.500000,97.153419,0.8,0.8,0.8
315288.531250,4834364.000000,85.820602,0.8,0.8,0.8
315319.437500,4834287.000000,105.094704,0.8,0.8,0.8
315371.312500,4834314.000000,98.532677,0.8,0.8,0.8
315310.312500,4834317.500000,87.004097,0.8,0.8,0.8
315292.093750,4834380.500000,107.677200,0.8,0.8,0.8
315344.906250,4834346.000000,82.441383,0.8,0.8,0.8
315378.468750,4834354.500000,82.352600,0.8,0.8,0.8
315399.031250,4834324.000000,90.937248,0.8,0.8,0.8
315277.937500,4834425.500000,90.843040,0.8,0.8,0.8
315371.031250,4834355.000000,83.240349,0.8,0.8,0.8
315323.937500,4834348.500000,83.004204,0.8,0.8,0.8
315311.312500,4834385.500000,89.242432,0.8,0.8,0.8
315352.843750,4834380.500000,98.350693,0.8,0.8,0.8
315350.531250,4834376.000000,85.395752,0.8,0.8,0.8
315333.218750,4834352.000000,87.081535,0.8,0.8,0.8
315354.312500,4834383.000000,110.029503,0.8,0.8,0.8
315355.312500,4834324.000000,106.056526,0.8,0.8,0.8
315296.437500,4834390.500000,88.281197,0.8,0.8,0.8
315368.843750,4834417.500000,127.469147,0.8,0.8,0.8
315329.125000,4834351.000000,82.484047,0.8,0.8,0.8
315358.625000,4834385.500000,98.673264,0.8,0.8,0.8
315312.875000,4834387.000000,91.239510,0.8,0.8,0.8
315427.156250,4834372.500000,92.044052,0.8,0.8,0.8
315377.843750,4834378.000000,89.573364,0.8,0.8,0.8
315275.125000,4834332.000000,82.934700,0.8,0.8,0.8
315290.156250,4834355.000000,97.530701,0.8,0.8,0.8
315325.718750,4834358.500000,92.769409,0.8,0.8,0.8
315369.906250,4834375.500000,82.939064,0.8,0.8,0.8
315309.718750,4834407.500000,92.741211,0.8,0.8,0.8
315388.843750,4834376.000000,81.586502,0.8,0.8,0.8
315309.531250,4834397.000000,93.124710,0.8,0.8,0.8
315279.218750,4834339.000000,85.238998,0.8,0.8,0.8
315323.562500,4834385.500000,99.653702,0.8,0.8,0.8
315356.937500,4834397.500000,102.006149,0.8,0.8,0.8
315428.500000,4834396.500000,99.237999,0.8,0.8,0.8
315328.781250,4834341.000000,95.536201,0.8,0.8,0.8
315330.562500,4834374.500000,102.010666,0.8,0.8,0.8
315277.125000,4834454.000000,90.852371,0.8,0.8,0.8
315316.656250,4834289.000000,109.247047,0.8,0.8,0.8
315371.718750,4834319.000000,88.428642,0.8,0.8,0.8
315314.406250,4834332.000000,88.414467,0.8,0.8,0.8
315424.906250,4834396.000000,94.069633,0.8,0.8,0.8
315293.562500,4834378.000000,98.640839,0.8,0.8,0.8
315344.062500,4834354.000000,85.433197,0.8,0.8,0.8
315313.312500,4834384.500000,86.740547,0.8,0.8,0.8
315285.312500,4834393.500000,93.209030,0.8,0.8,0.8
315319.062500,4834371.000000,98.010696,0.8,0.8,0.8
315324.375000,4834353.500000,85.568062,0.8,0.8,0.8
315312.125000,4834408.500000,118.145592,0.8,0.8,0.8
315331.500000,4834343.000000,87.539780,0.8,0.8,0.8
315316.531250,4834374.500000,82.434944,0.8,0.8,0.8
315369.968750,4834405.500000,102.812401,0.8,0.8,0.8
315397.937500,4834369.000000,81.560600,0.8,0.8,0.8
315361.125000,4834356.000000,83.947304,0.8,0.8,0.8
315268.937500,4834345.000000,108.420799,0.8,0.8,0.8
315312.218750,4834343.500000,81.558090,0.8,0.8,0.8
315366.500000,4834390.000000,99.146347,0.8,0.8,0.8
315354.406250,4834370.500000,83.335335,0.8,0.8,0.8
315387.125000,4834367.500000,81.622978,0.8,0.8,0.8
315345.906250,4834411.500000,82.520248,0.8,0.8,0.8
315266.125000,4834322.500000,86.394699,0.8,0.8,0.8
315370.531250,4834410.000000,102.241173,0.8,0.8,0.8
315344.906250,4834383.000000,101.111786,0.8,0.8,0.8
315353.625000,4834373.000000,100.788071,0.8,0.8,0.8
315426.250000,4834393.000000,82.020851,0.8,0.8,0.8
315374.125000,4834365.000000,92.333199,0.8,0.8,0.8
315315.468750,4834407.500000,95.188698,0.8,0.8,0.8
315367.312500,4834323.000000,90.124397,0.8,0.8,0.8
315336.156250,4834343.500000,88.844025,0.8,0.8,0.8
315426.250000,4834366.500000,92.857201,0.8,0.8,0.8
315407.718750,4834371.500000,84.479050,0.8,0.8,0.8
315269.500000,4834345.500000,92.858536,0.8,0.8,0.8
315336.906250,4834348.500000,86.426575,0.8,0.8,0.8
315309.843750,4834302.500000,82.562302,0.8,0.8,0.8
315336.562500,4834312.500000,95.333832,0.8,0.8,0.8
315272.906250,4834346.000000,90.241501,0.8,0.8,0.8
315374.875000,4834378.000000,96.209900,0.8,0.8,0.8
315358.031250,4834359.000000,83.844978,0.8,0.8,0.8
315354.687500,4834342.500000,82.947525,0.8,0.8,0.8
315401.906250,4834364.500000,93.239830,0.8,0.8,0.8
315343.062500,4834336.500000,90.444588,0.8,0.8,0.8
315334.500000,4834343.000000,83.342880,0.8,0.8,0.8
315381.125000,4834380.000000,100.433998,0.8,0.8,0.8
315356.031250,4834398.500000,100.857765,0.8,0.8,0.8
315303.968750,4834420.000000,101.917351,0.8,0.8,0.8
315435.843750,4834399.500000,104.335350,0.8,0.8,0.8
315373.406250,4834352.000000,83.152802,0.8,0.8,0.8
315314.531250,4834343.000000,86.929604,0.8,0.8,0.8
315293.625000,4834330.500000,81.677048,0.8,0.8,0.8
315349.750000,4834385.500000,99.310455,0.8,0.8,0.8
315327.187500,4834379.000000,101.118141,0.8,0.8,0.8
315328.406250,4834342.000000,90.840164,0.8,0.8,0.8
315323.625000,4834376.500000,99.740257,0.8,0.8,0.8
315376.343750,4834381.000000,96.482300,0.8,0.8,0.8
315340.093750,4834363.000000,88.156517,0.8,0.8,0.8
315278.937500,4834418.500000,96.230873,0.8,0.8,0.8
315315.468750,4834334.500000,81.373917,0.8,0.8,0.8
315337.593750,4834361.000000,87.009598,0.8,0.8,0.8
315355.718750,4834336.500000,83.928719,0.8,0.8,0.8
315382.218750,4834358.000000,83.324455,0.8,0.8,0.8
315328.875000,4834400.000000,101.990501,0.8,0.8,0.8
315334.312500,4834385.500000,101.248230,0.8,0.8,0.8
315352.937500,4834410.000000,103.567169,0.8,0.8,0.8
315334.437500,4834314.500000,84.827904,0.8,0.8,0.8
315289.718750,4834390.000000,105.140793,0.8,0.8,0.8
315337.125000,4834350.500000,85.235703,0.8,0.8,0.8
315301.343750,4834420.500000,102.028297,0.8,0.8,0.8
315285.031250,4834406.000000,98.560547,0.8,0.8,0.8
315285.093750,4834331.500000,85.629097,0.8,0.8,0.8
315332.468750,4834326.000000,91.266296,0.8,0.8,0.8
315365.718750,4834326.500000,104.032402,0.8,0.8,0.8
315313.562500,4834384.500000,96.121452,0.8,0.8,0.8
315320.281250,4834397.000000,101.897179,0.8,0.8,0.8
315357.937500,4834372.500000,102.417702,0.8,0.8,0.8
315319.625000,4834403.000000,88.439308,0.8,0.8,0.8
315351.250000,4834364.000000,82.644218,0.8,0.8,0.8
315367.625000,4834324.000000,107.046997,0.8,0.8,0.8
315344.718750,4834358.500000,81.581993,0.8,0.8,0.8
315324.156250,4834367.500000,83.737602,0.8,0.8,0.8
315391.968750,4834357.000000,82.045799,0.8,0.8,0.8
315320.062500,4834343.000000,85.561302,0.8,0.8,0.8
315374.093750,4834347.500000,84.492432,0.8,0.8,0.8
315336.750000,4834346.000000,91.649155,0.8,0.8,0.8
315325.312500,4834405.000000,101.035446,0.8,0.8,0.8
315314.906250,4834384.500000,99.974281,0.8,0.8,0.8
315304.218750,4834344.500000,81.577522,0.8,0.8,0.8
315319.625000,4834366.500000,91.240868,0.8,0.8,0.8
315352.906250,4834376.000000,98.712563,0.8,0.8,0.8
315375.437500,4834396.500000,122.598198,0.8,0.8,0.8
315347.406250,4834371.500000,101.046997,0.8,0.8,0.8
315295.718750,4834375.000000,82.242973,0.8,0.8,0.8
315377.625000,4834387.000000,108.858376,0.8,0.8,0.8
315295.000000,4834368.000000,99.643799,0.8,0.8,0.8
315418.406250,4834379.500000,87.523148,0.8,0.8,0.8
315338.687500,4834334.000000,79.331100,0.8,0.8,0.8
315347.718750,4834367.500000,86.516762,0.8,0.8,0.8
315363.187500,4834315.500000,90.026649,0.8,0.8,0.8
315345.406250,4834375.000000,88.946365,0.8,0.8,0.8
315367.343750,4834380.500000,84.966637,0.8,0.8,0.8
315278.937500,4834422.500000,92.042603,0.8,0.8,0.8
315381.500000,4834361.500000,81.519783,0.8,0.8,0.8
315303.187500,4834406.000000,87.952126,0.8,0.8,0.8
315348.062500,4834365.500000,91.237190,0.8,0.8,0.8
315310.437500,4834408.000000,99.342033,0.8,0.8,0.8
315306.312500,4834415.000000,121.781097,0.8,0.8,0.8
315417.750000,4834396.500000,89.794800,0.8,0.8,0.8
315333.312500,4834368.500000,101.581100,0.8,0.8,0.8
315287.937500,4834414.000000,82.542999,0.8,0.8,0.8
315299.437500,4834395.500000,92.821899,0.8,0.8,0.8
315317.625000,4834402.000000,101.343849,0.8,0.8,0.8
315284.531250,4834327.500000,93.731834,0.8,0.8,0.8
315434.593750,4834396.000000,96.265297,0.8,0.8,0.8
315357.687500,4834356.000000,83.641403,0.8,0.8,0.8
315350.281250,4834311.500000,90.442352,0.8,0.8,0.8
315398.718750,4834363.500000,87.332100,0.8,0.8,0.8
315319.187500,4834410.000000,99.812302,0.8,0.8,0.8
315294.406250,4834376.500000,96.144997,0.8,0.8,0.8
315305.656250,4834399.500000,88.579170,0.8,0.8,0.8
315351.437500,4834396.500000,106.983902,0.8,0.8,0.8
315338.812500,4834305.000000,99.439301,0.8,0.8,0.8
315336.281250,4834367.500000,97.909698,0.8,0.8,0.8
315298.906250,4834352.000000,83.482063,0.8,0.8,0.8
315328.906250,4834336.500000,89.737450,0.8,0.8,0.8
315311.312500,4834408.000000,112.733253,0.8,0.8,0.8
315371.718750,4834384.500000,86.045502,0.8,0.8,0.8
315432.093750,4834373.500000,92.260147,0.8,0.8,0.8
315298.656250,4834434.000000,115.252899,0.8,0.8,0.8
315365.093750,4834361.500000,93.706902,0.8,0.8,0.8
315310.531250,4834408.000000,120.339325,0.8,0.8,0.8
315314.937500,4834346.500000,86.547836,0.8,0.8,0.8
315348.937500,4834350.000000,89.078827,0.8,0.8,0.8
315306.406250,4834362.500000,93.027565,0.8,0.8,0.8
315293.468750,4834379.500000,99.629715,0.8,0.8,0.8
315299.250000,4834361.000000,102.849098,0.8,0.8,0.8
315351.468750,4834361.000000,84.376663,0.8,0.8,0.8
315316.437500,4834384.500000,99.389580,0.8,0.8,0.8
315360.906250,4834346.500000,86.161697,0.8,0.8,0.8
315352.093750,4834323.000000,90.151527,0.8,0.8,0.8
315281.000000,4834419.500000,82.963097,0.8,0.8,0.8
315340.906250,4834318.500000,108.537399,0.8,0.8,0.8
315321.218750,4834403.500000,97.936493,0.8,0.8,0.8
315341.500000,4834373.000000,99.640739,0.8,0.8,0.8
315325.937500,4834340.500000,82.934380,0.8,0.8,0.8
315335.750000,4834427.000000,113.679497,0.8,0.8,0.8
315334.500000,4834338.000000,83.640625,0.8,0.8,0.8
315394.468750,4834384.000000,104.195602,0.8,0.8,0.8
315321.218750,4834383.500000,85.543800,0.8,0.8,0.8
315427.500000,4834403.500000,112.940300,0.8,0.8,0.8
315347.281250,4834397.000000,109.608078,0.8,0.8,0.8
315368.687500,4834371.500000,82.333260,0.8,0.8,0.8
315316.937500,4834411.000000,98.088303,0.8,0.8,0.8
315364.281250,4834353.500000,83.190804,0.8,0.8,0.8
315282.500000,4834411.500000,85.530952,0.8,0.8,0.8
315345.656250,4834370.500000,99.668449,0.8,0.8,0.8
315316.843750,4834306.500000,87.167000,0.8,0.8,0.8
315339.000000,4834367.500000,82.026878,0.8,0.8,0.8
315349.125000,4834372.000000,88.384270,0.8,0.8,0.8
315287.218750,4834417.500000,83.971298,0.8,0.8,0.8
315374.875000,4834374.000000,92.640877,0.8,0.8,0.8
315309.718750,4834363.500000,81.749519,0.8,0.8,0.8
315335.593750,4834380.000000,101.106903,0.8,0.8,0.8
315334.218750,4834399.000000,100.498390,0.8,0.8,0.8
315338.531250,4834309.000000,91.320900,0.8,0.8,0.8
315307.937500,4834332.500000,90.811264,0.8,0.8,0.8
315424.968750,4834384.500000,82.054298,0.8,0.8,0.8
315334.125000,4834369.000000,99.441338,0.8,0.8,0.8
315385.718750,4834360.000000,82.840111,0.8,0.8,0.8
315320.312500,4834290.500000,102.652336,0.8,0.8,0.8
315382.218750,4834359.000000,81.595108,0.8,0.8,0.8
315380.031250,4834374.000000,88.290298,0.8,0.8,0.8
315315.718750,4834396.000000,87.795547,0.8,0.8,0.8
315390.218750,4834382.500000,93.086800,0.8,0.8,0.8
315301.843750,4834424.500000,114.021400,0.8,0.8,0.8
315374.843750,4834397.000000,111.266335,0.8,0.8,0.8
315359.093750,4834357.500000,83.006126,0.8,0.8,0.8
315329.343750,4834366.500000,101.317947,0.8,0.8,0.8
315308.843750,4834407.500000,120.026497,0.8,0.8,0.8
315344.750000,4834388.500000,99.441734,0.8,0.8,0.8
315347.218750,4834377.500000,101.239685,0.8,0.8,0.8
315334.437500,4834402.000000,100.586578,0.8,0.8,0.8
315433.437500,4834395.500000,94.452797,0.8,0.8,0.8
315368.406250,4834414.000000,117.828178,0.8,0.8,0.8
315263.843750,4834461.500000,103.832298,0.8,0.8,0.8
315296.250000,4834369.500000,102.860443,0.8,0.8,0.8
315306.500000,4834373.500000,81.953217,0.8,0.8,0.8
315333.312500,4834346.000000,88.185898,0.8,0.8,0.8
315347.437500,4834349.500000,91.567039,0.8,0.8,0.8
315347.625000,4834321.500000,100.411400,0.8,0.8,0.8
315422.218750,4834398.500000,121.946167,0.8,0.8,0.8
315267.406250,4834450.500000,104.080704,0.8,0.8,0.8
315283.312500,4834411.500000,94.347649,0.8,0.8,0.8
315388.812500,4834382.000000,97.241989,0.8,0.8,0.8
315368.406250,4834392.500000,100.539658,0.8,0.8,0.8
315330.437500,4834333.000000,87.435303,0.8,0.8,0.8
315299.406250,4834424.500000,111.656700,0.8,0.8,0.8
315301.500000,4834333.000000,86.732437,0.8,0.8,0.8
315357.906250,4834372.500000,100.422569,0.8,0.8,0.8
315379.250000,4834380.500000,85.537285,0.8,0.8,0.8
315368.750000,4834386.500000,83.378197,0.8,0.8,0.8
315338.218750,4834388.500000,101.974785,0.8,0.8,0.8
315329.937500,4834388.500000,101.973480,0.8,0.8,0.8
315343.093750,4834401.000000,101.685555,0.8,0.8,0.8
315308.156250,4834364.500000,90.951653,0.8,0.8,0.8
315383.906250,4834376.000000,92.153999,0.8,0.8,0.8
315335.562500,4834334.000000,83.099998,0.8,0.8,0.8
315354.437500,4834382.000000,82.848534,0.8,0.8,0.8
315352.562500,4834398.000000,101.054085,0.8,0.8,0.8
315332.562500,4834353.000000,82.539764,0.8,0.8,0.8
315275.312500,4834449.000000,83.162971,0.8,0.8,0.8
315351.093750,4834347.000000,87.717003,0.8,0.8,0.8
315373.968750,4834373.000000,82.490402,0.8,0.8,0.8
315415.500000,4834385.500000,87.837151,0.8,0.8,0.8
315346.281250,4834354.500000,84.259399,0.8,0.8,0.8
315341.500000,4834366.500000,92.538628,0.8,0.8,0.8
315309.718750,4834388.000000,82.191254,0.8,0.8,0.8
315286.062500,4834350.000000,91.536697,0.8,0.8,0.8
315348.000000,4834388.000000,101.925674,0.8,0.8,0.8
315419.687500,4834401.000000,122.113800,0.8,0.8,0.8
315315.968750,4834378.500000,104.466499,0.8,0.8,0.8
315406.687500,4834375.500000,82.830177,0.8,0.8,0.8
315314.718750,4834343.000000,81.563774,0.8,0.8,0.8
315307.625000,4834411.500000,108.445259,0.8,0.8,0.8
315313.125000,4834289.000000,97.081200,0.8,0.8,0.8
315337.125000,4834333.500000,83.070641,0.8,0.8,0.8
315340.000000,4834373.000000,100.983772,0.8,0.8,0.8
315300.468750,4834414.000000,84.677086,0.8,0.8,0.8
315364.375000,4834387.000000,83.386803,0.8,0.8,0.8
315389.093750,4834382.000000,85.541496,0.8,0.8,0.8
315324.468750,4834352.000000,82.730202,0.8,0.8,0.8
315279.312500,4834420.500000,103.646248,0.8,0.8,0.8
315278.343750,4834362.000000,85.542999,0.8,0.8,0.8
315283.687500,4834395.000000,86.461800,0.8,0.8,0.8
315349.218750,4834370.500000,82.343102,0.8,0.8,0.8
315340.906250,4834319.000000,110.044746,0.8,0.8,0.8
315359.875000,4834366.000000,82.931267,0.8,0.8,0.8
315389.156250,4834383.000000,102.811699,0.8,0.8,0.8
315317.187500,4834372.500000,88.004852,0.8,0.8,0.8
315365.968750,4834373.000000,86.752197,0.8,0.8,0.8
315338.500000,4834423.500000,99.244049,0.8,0.8,0.8
315366.031250,4834324.000000,95.751801,0.8,0.8,0.8
315285.187500,4834402.000000,101.054489,0.8,0.8,0.8
315334.156250,4834349.000000,87.244400,0.8,0.8,0.8
315374.875000,4834365.500000,92.661102,0.8,0.8,0.8
315326.812500,4834359.000000,84.562202,0.8,0.8,0.8
315352.093750,4834372.500000,82.753326,0.8,0.8,0.8
315302.968750,4834332.000000,93.022003,0.8,0.8,0.8
315341.406250,4834344.500000,88.822998,0.8,0.8,0.8
315314.031250,4834386.000000,85.741142,0.8,0.8,0.8
315356.062500,4834352.000000,87.383965,0.8,0.8,0.8
315376.718750,4834355.000000,91.079201,0.8,0.8,0.8
315290.968750,4834386.000000,94.035980,0.8,0.8,0.8
315311.406250,4834379.500000,81.988937,0.8,0.8,0.8
315332.343750,4834315.500000,80.646698,0.8,0.8,0.8
315283.062500,4834350.000000,106.071899,0.8,0.8,0.8
315294.250000,4834370.500000,98.906860,0.8,0.8,0.8
315385.218750,4834381.000000,97.251244,0.8,0.8,0.8
315278.093750,4834420.000000,88.475502,0.8,0.8,0.8
315336.000000,4834365.500000,102.837654,0.8,0.8,0.8
315376.875000,4834390.000000,102.739990,0.8,0.8,0.8
315303.250000,4834404.000000,84.278061,0.8,0.8,0.8
315329.218750,4834367.500000,102.076904,0.8,0.8,0.8
315313.468750,4834389.000000,95.303398,0.8,0.8,0.8
315352.937500,4834372.000000,93.808998,0.8,0.8,0.8
315311.968750,4834392.000000,99.537003,0.8,0.8,0.8
315296.000000,4834396.000000,82.336815,0.8,0.8,0.8
315384.687500,4834360.000000,85.743767,0.8,0.8,0.8
315377.531250,4834403.500000,124.825500,0.8,0.8,0.8
315369.281250,4834414.500000,110.833519,0.8,0.8,0.8
315326.625000,4834354.500000,82.973175,0.8,0.8,0.8
315331.906250,4834407.000000,82.240898,0.8,0.8,0.8
315312.968750,4834396.000000,99.525650,0.8,0.8,0.8
315370.937500,4834338.000000,89.238960,0.8,0.8,0.8
315296.968750,4834390.000000,86.507751,0.8,0.8,0.8
315289.218750,4834373.000000,100.630798,0.8,0.8,0.8
315295.906250,4834338.000000,81.489197,0.8,0.8,0.8
315359.468750,4834374.500000,82.600021,0.8,0.8,0.8
315328.406250,4834363.000000,90.741661,0.8,0.8,0.8
315302.343750,4834363.500000,104.882500,0.8,0.8,0.8
315301.312500,4834421.000000,100.339302,0.8,0.8,0.8
315388.906250,4834382.000000,99.443665,0.8,0.8,0.8
315313.812500,4834393.500000,101.186554,0.8,0.8,0.8
315340.906250,4834401.500000,102.013031,0.8,0.8,0.8
315350.125000,4834378.000000,105.380348,0.8,0.8,0.8
315289.406250,4834392.500000,82.513168,0.8,0.8,0.8
315372.937500,4834330.500000,91.624901,0.8,0.8,0.8
315314.187500,4834315.500000,88.793999,0.8,0.8,0.8
315301.781250,4834325.000000,81.853699,0.8,0.8,0.8
315297.625000,4834363.500000,99.270500,0.8,0.8,0.8
315301.968750,4834347.500000,82.531601,0.8,0.8,0.8
315327.125000,4834383.500000,100.043808,0.8,0.8,0.8
315362.093750,4834326.000000,101.836716,0.8,0.8,0.8
315336.687500,4834356.000000,86.170998,0.8,0.8,0.8
315359.406250,4834325.500000,90.640106,0.8,0.8,0.8
315331.750000,4834329.000000,81.436668,0.8,0.8,0.8
315326.187500,4834361.000000,81.387901,0.8,0.8,0.8
315338.312500,4834347.000000,89.151703,0.8,0.8,0.8
315336.093750,4834342.000000,96.352303,0.8,0.8,0.8
315287.750000,4834350.500000,97.029350,0.8,0.8,0.8
315366.031250,4834388.000000,86.953346,0.8,0.8,0.8
315313.000000,4834364.000000,81.647514,0.8,0.8,0.8
315304.843750,4834409.000000,102.840729,0.8,0.8,0.8
315312.406250,4834355.500000,89.648300,0.8,0.8,0.8
315317.000000,4834402.500000,85.541313,0.8,0.8,0.8
315326.218750,4834359.000000,92.818573,0.8,0.8,0.8
315286.437500,4834414.500000,82.679298,0.8,0.8,0.8
315372.531250,4834332.000000,90.033447,0.8,0.8,0.8
315327.625000,4834359.000000,91.684326,0.8,0.8,0.8
315317.093750,4834330.000000,81.258797,0.8,0.8,0.8
315275.718750,4834415.000000,90.414200,0.8,0.8,0.8
315299.718750,4834383.000000,82.166725,0.8,0.8,0.8
315369.281250,4834364.000000,88.822403,0.8,0.8,0.8
315388.093750,4834381.500000,102.837273,0.8,0.8,0.8
315354.093750,4834350.000000,87.374100,0.8,0.8,0.8
315337.062500,4834337.500000,84.218399,0.8,0.8,0.8
315277.125000,4834428.000000,101.861900,0.8,0.8,0.8
315302.312500,4834418.000000,99.722801,0.8,0.8,0.8
315355.312500,4834394.000000,101.378059,0.8,0.8,0.8
315314.562500,4834381.000000,104.443703,0.8,0.8,0.8
315286.937500,4834386.500000,83.854897,0.8,0.8,0.8
315397.875000,4834318.500000,78.653801,0.8,0.8,0.8
315311.562500,4834400.500000,103.659668,0.8,0.8,0.8
315262.468750,4834325.000000,85.534500,0.8,0.8,0.8
315318.656250,4834287.500000,91.151604,0.8,0.8,0.8
315359.593750,4834404.500000,103.462967,0.8,0.8,0.8
315402.000000,4834386.500000,85.954498,0.8,0.8,0.8
315405.843750,4834385.000000,84.343369,0.8,0.8,0.8
315388.156250,4834374.000000,82.790199,0.8,0.8,0.8
315261.031250,4834326.500000,82.085098,0.8,0.8,0.8
315330.093750,4834334.000000,89.655746,0.8,0.8,0.8
315358.593750,4834354.000000,85.842300,0.8,0.8,0.8
315416.187500,4834388.000000,106.543976,0.8,0.8,0.8
315347.937500,4834364.500000,81.112053,0.8,0.8,0.8
315308.937500,4834334.000000,83.444748,0.8,0.8,0.8
315328.406250,4834284.500000,80.522453,0.8,0.8,0.8
315280.781250,4834416.500000,107.637001,0.8,0.8,0.8
315326.500000,4834383.000000,99.440132,0.8,0.8,0.8
315387.937500,4834382.000000,101.166603,0.8,0.8,0.8
315298.812500,4834354.500000,100.938675,0.8,0.8,0.8
315304.812500,4834366.500000,81.791679,0.8,0.8,0.8
315306.812500,4834334.500000,94.008949,0.8,0.8,0.8
315316.656250,4834365.500000,88.230415,0.8,0.8,0.8
315376.812500,4834377.500000,87.475800,0.8,0.8,0.8
315353.125000,4834323.500000,104.309013,0.8,0.8,0.8
315366.593750,4834414.500000,119.137604,0.8,0.8,0.8
315303.031250,4834363.500000,105.886749,0.8,0.8,0.8
315361.312500,4834358.000000,82.440407,0.8,0.8,0.8
315317.125000,4834393.500000,87.837402,0.8,0.8,0.8
315310.625000,4834289.000000,105.925552,0.8,0.8,0.8
315363.937500,4834369.000000,84.598198,0.8,0.8,0.8
315333.625000,4834344.500000,81.650116,0.8,0.8,0.8
315269.968750,4834451.000000,95.445602,0.8,0.8,0.8
315310.718750,4834325.500000,95.336586,0.8,0.8,0.8
315284.125000,4834406.000000,96.640099,0.8,0.8,0.8
315432.531250,4834374.500000,93.098602,0.8,0.8,0.8
315297.156250,4834367.500000,97.919678,0.8,0.8,0.8
315327.625000,4834341.000000,84.037682,0.8,0.8,0.8
315316.187500,4834376.500000,92.853317,0.8,0.8,0.8
315325.218750,4834402.500000,101.057861,0.8,0.8,0.8
315419.906250,4834392.000000,91.244301,0.8,0.8,0.8
315295.093750,4834353.000000,107.541924,0.8,0.8,0.8
315354.031250,4834312.500000,100.040802,0.8,0.8,0.8
315340.468750,4834349.000000,83.256073,0.8,0.8,0.8
315292.843750,4834352.500000,108.422699,0.8,0.8,0.8
315332.468750,4834327.500000,87.255753,0.8,0.8,0.8
315301.500000,4834412.500000,82.739685,0.8,0.8,0.8
315304.750000,4834410.500000,86.035835,0.8,0.8,0.8
315364.687500,4834427.000000,117.848625,0.8,0.8,0.8
315281.718750,4834338.500000,81.912354,0.8,0.8,0.8
315360.500000,4834373.000000,90.444000,0.8,0.8,0.8
315351.500000,4834388.000000,99.454597,0.8,0.8,0.8
315322.156250,4834388.500000,99.508904,0.8,0.8,0.8
315309.750000,4834362.000000,100.243103,0.8,0.8,0.8
315293.375000,4834379.000000,108.634186,0.8,0.8,0.8
315299.343750,4834361.000000,100.339813,0.8,0.8,0.8
315299.500000,4834331.000000,88.751686,0.8,0.8,0.8
315332.843750,4834407.000000,100.199448,0.8,0.8,0.8
315336.218750,4834314.000000,92.047470,0.8,0.8,0.8
315355.312500,4834371.500000,82.439835,0.8,0.8,0.8
315366.031250,4834373.000000,87.890602,0.8,0.8,0.8
315283.625000,4834350.000000,96.776649,0.8,0.8,0.8
315398.468750,4834387.000000,83.774902,0.8,0.8,0.8
315336.718750,4834348.500000,81.476486,0.8,0.8,0.8
315304.687500,4834379.000000,99.060066,0.8,0.8,0.8
315312.093750,4834398.500000,106.155273,0.8,0.8,0.8
315305.875000,4834327.500000,93.959435,0.8,0.8,0.8
315337.406250,4834423.000000,108.071548,0.8,0.8,0.8
315280.906250,4834416.500000,96.937691,0.8,0.8,0.8
315364.812500,4834393.500000,81.649200,0.8,0.8,0.8
315323.031250,4834383.500000,98.781281,0.8,0.8,0.8
315300.125000,4834356.500000,99.645493,0.8,0.8,0.8
315281.125000,4834415.500000,107.239677,0.8,0.8,0.8
315431.250000,4834396.500000,108.707802,0.8,0.8,0.8
315311.187500,4834399.000000,95.234360,0.8,0.8,0.8
315408.218750,4834416.500000,91.469147,0.8,0.8,0.8
315319.000000,4834287.000000,101.541122,0.8,0.8,0.8
315339.843750,4834357.500000,85.976196,0.8,0.8,0.8
315415.750000,4834392.500000,94.731903,0.8,0.8,0.8
315310.312500,4834325.000000,89.605164,0.8,0.8,0.8
315381.656250,4834388.000000,108.771797,0.8,0.8,0.8
315286.906250,4834328.000000,92.484703,0.8,0.8,0.8
315263.062500,4834343.500000,89.906097,0.8,0.8,0.8
315309.656250,4834330.000000,96.319664,0.8,0.8,0.8
315374.906250,4834346.500000,84.485565,0.8,0.8,0.8
315357.468750,4834359.000000,85.128601,0.8,0.8,0.8
315358.218750,4834344.500000,92.076103,0.8,0.8,0.8
315322.125000,4834363.500000,101.642204,0.8,0.8,0.8
315261.625000,4834449.500000,104.039253,0.8,0.8,0.8
315300.312500,4834357.500000,103.485603,0.8,0.8,0.8
315293.562500,4834379.000000,102.848770,0.8,0.8,0.8
315290.500000,4834389.500000,88.839989,0.8,0.8,0.8
315321.062500,4834411.000000,100.639503,0.8,0.8,0.8
315298.687500,4834341.500000,84.111603,0.8,0.8,0.8
315348.000000,4834362.500000,81.580894,0.8,0.8,0.8
315269.125000,4834444.500000,84.731964,0.8,0.8,0.8
315279.375000,4834334.000000,81.483498,0.8,0.8,0.8
315299.093750,4834385.500000,84.039856,0.8,0.8,0.8
315311.281250,4834384.000000,89.706802,0.8,0.8,0.8
315321.687500,4834363.500000,97.229965,0.8,0.8,0.8
315361.093750,4834388.500000,85.960434,0.8,0.8,0.8
315363.718750,4834366.500000,81.630806,0.8,0.8,0.8
315281.937500,4834416.000000,92.950363,0.8,0.8,0.8
315322.250000,4834369.500000,102.036255,0.8,0.8,0.8
315371.406250,4834336.500000,85.636742,0.8,0.8,0.8
315375.968750,4834378.000000,89.799202,0.8,0.8,0.8
315324.937500,4834386.000000,101.239044,0.8,0.8,0.8
315276.312500,4834424.500000,93.681396,0.8,0.8,0.8
315297.781250,4834333.000000,82.567802,0.8,0.8,0.8
315315.750000,4834341.000000,87.779701,0.8,0.8,0.8
315370.437500,4834339.500000,88.053825,0.8,0.8,0.8
315313.781250,4834394.500000,100.442291,0.8,0.8,0.8
315293.718750,4834352.500000,105.531853,0.8,0.8,0.8
315369.187500,4834414.000000,96.130203,0.8,0.8,0.8
315277.906250,4834454.500000,91.265701,0.8,0.8,0.8
315300.906250,4834398.500000,82.347336,0.8,0.8,0.8
315306.406250,4834376.500000,82.008286,0.8,0.8,0.8
315337.718750,4834425.500000,108.065849,0.8,0.8,0.8
315368.375000,4834358.500000,89.069603,0.8,0.8,0.8
315338.500000,4834306.000000,101.214104,0.8,0.8,0.8
315328.343750,4834338.500000,97.236671,0.8,0.8,0.8
315345.531250,4834373.000000,89.641251,0.8,0.8,0.8
315355.312500,4834360.500000,81.640511,0.8,0.8,0.8
315326.843750,4834360.000000,90.566299,0.8,0.8,0.8
315286.843750,4834395.000000,106.053802,0.8,0.8,0.8
315321.343750,4834358.500000,87.437737,0.8,0.8,0.8
315336.718750,4834314.000000,97.011398,0.8,0.8,0.8
315334.937500,4834349.500000,87.371964,0.8,0.8,0.8
315378.562500,4834385.500000,85.986397,0.8,0.8,0.8
315369.656250,4834412.500000,91.349098,0.8,0.8,0.8
315325.093750,4834337.000000,82.469025,0.8,0.8,0.8
315371.687500,4834353.000000,91.133499,0.8,0.8,0.8
315378.125000,4834379.000000,95.333900,0.8,0.8,0.8
315392.718750,4834383.000000,81.677315,0.8,0.8,0.8
315333.625000,4834376.500000,98.778687,0.8,0.8,0.8
315333.312500,4834315.000000,82.054199,0.8,0.8,0.8
315365.281250,4834366.000000,84.432770,0.8,0.8,0.8
315343.906250,4834384.500000,99.640419,0.8,0.8,0.8
315376.812500,4834366.500000,81.642380,0.8,0.8,0.8
315308.406250,4834331.500000,93.062523,0.8,0.8,0.8
315267.000000,4834444.000000,83.524200,0.8,0.8,0.8
315304.437500,4834395.000000,85.728050,0.8,0.8,0.8
315290.437500,4834326.000000,90.429939,0.8,0.8,0.8
315308.906250,4834349.500000,81.574730,0.8,0.8,0.8
315326.906250,4834397.000000,99.437561,0.8,0.8,0.8
315315.406250,4834384.000000,100.241142,0.8,0.8,0.8
315288.718750,4834392.000000,82.533562,0.8,0.8,0.8
315312.125000,4834389.500000,105.836945,0.8,0.8,0.8
315345.718750,4834393.500000,102.006783,0.8,0.8,0.8
315422.656250,4834395.500000,101.959053,0.8,0.8,0.8
315355.593750,4834383.500000,108.541954,0.8,0.8,0.8
315381.406250,4834359.000000,85.731613,0.8,0.8,0.8
315277.375000,4834455.500000,86.345596,0.8,0.8,0.8
315353.750000,4834376.000000,102.018433,0.8,0.8,0.8
315314.250000,4834383.000000,99.440620,0.8,0.8,0.8
315311.312500,4834393.000000,105.609596,0.8,0.8,0.8
315322.812500,4834287.000000,105.097397,0.8,0.8,0.8
315294.218750,4834343.500000,81.578270,0.8,0.8,0.8
315313.687500,4834354.500000,92.980919,0.8,0.8,0.8
315302.781250,4834379.000000,83.627968,0.8,0.8,0.8
315299.906250,4834411.000000,82.645340,0.8,0.8,0.8
315301.500000,4834377.000000,82.043411,0.8,0.8,0.8
315313.218750,4834408.500000,85.537941,0.8,0.8,0.8
315332.656250,4834348.500000,89.421997,0.8,0.8,0.8
315357.718750,4834368.000000,92.350441,0.8,0.8,0.8
315274.468750,4834430.000000,92.647003,0.8,0.8,0.8
315366.718750,4834421.500000,91.634773,0.8,0.8,0.8
315366.937500,4834422.000000,121.540901,0.8,0.8,0.8
315283.562500,4834388.000000,84.882103,0.8,0.8,0.8
315315.218750,4834345.000000,84.707001,0.8,0.8,0.8
315347.437500,4834354.000000,86.894897,0.8,0.8,0.8
315333.531250,4834318.000000,83.381798,0.8,0.8,0.8
315313.718750,4834317.500000,89.636253,0.8,0.8,0.8
315318.125000,4834387.000000,85.524200,0.8,0.8,0.8
315373.000000,4834381.000000,82.986397,0.8,0.8,0.8
315317.125000,4834289.500000,96.945175,0.8,0.8,0.8
315305.593750,4834362.500000,81.688232,0.8,0.8,0.8
315332.000000,4834359.500000,92.722282,0.8,0.8,0.8
315334.125000,4834322.000000,97.232948,0.8,0.8,0.8
315330.468750,4834354.500000,86.077103,0.8,0.8,0.8
315310.500000,4834408.000000,102.143585,0.8,0.8,0.8
315292.875000,4834352.000000,89.985802,0.8,0.8,0.8
315350.531250,4834348.500000,85.000397,0.8,0.8,0.8
315324.937500,4834367.500000,86.738266,0.8,0.8,0.8
315326.437500,4834371.000000,82.283302,0.8,0.8,0.8
315299.031250,4834433.000000,109.641701,0.8,0.8,0.8
315297.718750,4834357.500000,89.897179,0.8,0.8,0.8
315289.312500,4834351.000000,113.865700,0.8,0.8,0.8
315393.750000,4834380.500000,86.279602,0.8,0.8,0.8
315345.625000,4834392.000000,98.705482,0.8,0.8,0.8
315323.625000,4834389.500000,101.900948,0.8,0.8,0.8
315327.343750,4834454.000000,101.261101,0.8,0.8,0.8
315291.125000,4834459.000000,95.884331,0.8,0.8,0.8
315402.156250,4834391.500000,103.903702,0.8,0.8,0.8
315308.031250,4834333.000000,93.739983,0.8,0.8,0.8
315308.187500,4834386.500000,84.364151,0.8,0.8,0.8
315367.062500,4834393.500000,84.725601,0.8,0.8,0.8
315337.406250,4834366.500000,99.639679,0.8,0.8,0.8
315377.312500,4834327.500000,87.845100,0.8,0.8,0.8
315427.593750,4834385.500000,83.137352,0.8,0.8,0.8
315313.937500,4834409.000000,85.948502,0.8,0.8,0.8
315273.000000,4834445.500000,83.410400,0.8,0.8,0.8
315358.062500,4834387.000000,82.046463,0.8,0.8,0.8
315307.812500,4834344.500000,87.346100,0.8,0.8,0.8
315291.343750,4834384.000000,92.937660,0.8,0.8,0.8
315358.750000,4834378.000000,101.081978,0.8,0.8,0.8
315361.906250,4834378.500000,98.684059,0.8,0.8,0.8
315272.843750,4834451.500000,87.632950,0.8,0.8,0.8
315339.531250,4834333.500000,83.917488,0.8,0.8,0.8
315344.375000,4834364.500000,88.218193,0.8,0.8,0.8
315298.218750,4834430.000000,100.552353,0.8,0.8,0.8
315417.312500,4834387.500000,83.029549,0.8,0.8,0.8
315288.406250,4834391.000000,96.907799,0.8,0.8,0.8
315333.312500,4834324.500000,84.839333,0.8,0.8,0.8
315330.218750,4834341.500000,85.826332,0.8,0.8,0.8
315363.718750,4834397.500000,86.541000,0.8,0.8,0.8
315388.375000,4834370.000000,83.501152,0.8,0.8,0.8
315398.250000,4834361.500000,95.075104,0.8,0.8,0.8
315342.875000,4834294.500000,80.887802,0.8,0.8,0.8
315322.468750,4834371.500000,100.251091,0.8,0.8,0.8
315295.843750,4834428.000000,83.068100,0.8,0.8,0.8
315343.812500,4834373.000000,101.296394,0.8,0.8,0.8
315300.406250,4834426.500000,95.487198,0.8,0.8,0.8
315335.906250,4834345.000000,87.416801,0.8,0.8,0.8
315290.312500,4834380.000000,111.640953,0.8,0.8,0.8
315312.093750,4834388.000000,86.882004,0.8,0.8,0.8
315303.562500,4834402.000000,84.448761,0.8,0.8,0.8
315307.718750,4834386.000000,82.265999,0.8,0.8,0.8
315287.906250,4834328.000000,90.790802,0.8,0.8,0.8
315289.875000,4834351.000000,110.654297,0.8,0.8,0.8
315309.718750,4834407.500000,122.940735,0.8,0.8,0.8
315293.406250,4834330.000000,84.073967,0.8,0.8,0.8
315301.500000,4834333.000000,87.997803,0.8,0.8,0.8
315361.437500,4834400.000000,100.279701,0.8,0.8,0.8
315317.218750,4834389.500000,87.816277,0.8,0.8,0.8
315298.906250,4834374.500000,84.327637,0.8,0.8,0.8
315419.250000,4834393.500000,88.841751,0.8,0.8,0.8
315374.031250,4834399.500000,122.428185,0.8,0.8,0.8
315304.812500,4834330.500000,86.331635,0.8,0.8,0.8
315374.062500,4834352.000000,81.609650,0.8,0.8,0.8
315341.531250,4834349.000000,88.730598,0.8,0.8,0.8
315278.531250,4834344.000000,83.247528,0.8,0.8,0.8
315341.343750,4834341.500000,96.141090,0.8,0.8,0.8
315346.906250,4834378.500000,89.590599,0.8,0.8,0.8
315280.937500,4834411.500000,93.678337,0.8,0.8,0.8
315338.031250,4834366.500000,96.940224,0.8,0.8,0.8
315284.343750,4834458.000000,100.087700,0.8,0.8,0.8
315322.093750,4834398.500000,101.974869,0.8,0.8,0.8
315352.750000,4834363.500000,84.980103,0.8,0.8,0.8
315328.156250,4834360.500000,89.176903,0.8,0.8,0.8
315364.281250,4834375.500000,93.939232,0.8,0.8,0.8
315367.312500,4834419.000000,88.213150,0.8,0.8,0.8
315333.312500,4834324.500000,88.035774,0.8,0.8,0.8
315374.312500,4834342.000000,84.113297,0.8,0.8,0.8
315342.875000,4834368.000000,96.272934,0.8,0.8,0.8
315391.125000,4834382.500000,83.138039,0.8,0.8,0.8
315353.125000,4834327.500000,84.448402,0.8,0.8,0.8
315365.968750,4834418.500000,93.837601,0.8,0.8,0.8
315294.343750,4834373.000000,90.042717,0.8,0.8,0.8
315336.625000,4834383.500000,101.197144,0.8,0.8,0.8
315323.312500,4834379.000000,101.123901,0.8,0.8,0.8
315317.375000,4834308.000000,91.336098,0.8,0.8,0.8
315291.468750,4834355.500000,86.176102,0.8,0.8,0.8
315308.031250,4834289.500000,103.173248,0.8,0.8,0.8
315392.531250,4834368.000000,82.624802,0.8,0.8,0.8
315262.468750,4834343.000000,107.494797,0.8,0.8,0.8
315313.812500,4834349.500000,81.587051,0.8,0.8,0.8
315349.656250,4834385.000000,100.139984,0.8,0.8,0.8
315364.187500,4834399.500000,82.932777,0.8,0.8,0.8
315358.593750,4834379.000000,98.741081,0.8,0.8,0.8
315323.031250,4834401.000000,101.976326,0.8,0.8,0.8
315381.718750,4834387.000000,111.625397,0.8,0.8,0.8
315286.843750,4834422.000000,84.128761,0.8,0.8,0.8
315387.312500,4834359.500000,92.837997,0.8,0.8,0.8
315353.531250,4834395.000000,104.439499,0.8,0.8,0.8
315428.750000,4834395.500000,114.087799,0.8,0.8,0.8
315370.937500,4834385.000000,86.877098,0.8,0.8,0.8
315275.437500,4834347.000000,93.672699,0.8,0.8,0.8
315334.218750,4834322.000000,94.806702,0.8,0.8,0.8
315417.406250,4834399.000000,88.367767,0.8,0.8,0.8
315351.718750,4834301.500000,87.946404,0.8,0.8,0.8
315291.750000,4834383.500000,94.623085,0.8,0.8,0.8
315308.843750,4834329.500000,82.418602,0.8,0.8,0.8
315364.031250,4834316.000000,91.245728,0.8,0.8,0.8
315420.875000,4834401.000000,119.313797,0.8,0.8,0.8
315388.031250,4834373.000000,81.651497,0.8,0.8,0.8
315321.125000,4834373.000000,100.440086,0.8,0.8,0.8
315339.031250,4834312.000000,106.897003,0.8,0.8,0.8
315366.687500,4834352.000000,85.500801,0.8,0.8,0.8
315312.093750,4834354.500000,83.773201,0.8,0.8,0.8
315311.937500,4834331.000000,83.764847,0.8,0.8,0.8
315286.593750,4834351.000000,98.653969,0.8,0.8,0.8
315434.468750,4834374.500000,85.566498,0.8,0.8,0.8
315373.000000,4834347.000000,87.937302,0.8,0.8,0.8
315290.000000,4834459.000000,97.761597,0.8,0.8,0.8
315340.218750,4834341.000000,81.602188,0.8,0.8,0.8
315336.750000,4834351.000000,89.186401,0.8,0.8,0.8
315334.312500,4834365.000000,102.841942,0.8,0.8,0.8
315330.906250,4834394.500000,101.365105,0.8,0.8,0.8
315302.562500,4834417.500000,95.843300,0.8,0.8,0.8
315374.406250,4834351.000000,91.549698,0.8,0.8,0.8
315366.906250,4834375.500000,81.705177,0.8,0.8,0.8
315314.093750,4834398.500000,98.802231,0.8,0.8,0.8
315367.437500,4834376.500000,85.900299,0.8,0.8,0.8
315352.312500,4834388.000000,101.969475,0.8,0.8,0.8
315339.062500,4834366.500000,93.114700,0.8,0.8,0.8
315336.062500,4834374.000000,99.237030,0.8,0.8,0.8
315392.625000,4834383.000000,94.464401,0.8,0.8,0.8
315362.656250,4834326.500000,102.761902,0.8,0.8,0.8
315399.531250,4834365.000000,81.567101,0.8,0.8,0.8
315326.875000,4834383.000000,102.002968,0.8,0.8,0.8
315351.218750,4834399.500000,107.844765,0.8,0.8,0.8
315341.093750,4834303.000000,86.252403,0.8,0.8,0.8
315330.250000,4834374.000000,101.388237,0.8,0.8,0.8
315300.718750,4834413.500000,88.661125,0.8,0.8,0.8
315276.093750,4834431.000000,104.339638,0.8,0.8,0.8
315385.031250,4834381.000000,96.447250,0.8,0.8,0.8
315390.718750,4834361.000000,92.137932,0.8,0.8,0.8
315371.218750,4834387.500000,110.548302,0.8,0.8,0.8
315296.781250,4834368.500000,99.548668,0.8,0.8,0.8
315330.375000,4834341.000000,95.670403,0.8,0.8,0.8
315282.812500,4834411.500000,83.136513,0.8,0.8,0.8
315293.531250,4834379.500000,86.334427,0.8,0.8,0.8
315356.906250,4834384.000000,103.440948,0.8,0.8,0.8
315331.125000,4834402.500000,100.470673,0.8,0.8,0.8
315367.718750,4834367.500000,89.244003,0.8,0.8,0.8
315377.437500,4834388.000000,106.837303,0.8,0.8,0.8
315338.812500,4834305.500000,92.152397,0.8,0.8,0.8
315362.718750,4834353.500000,81.573288,0.8,0.8,0.8
315342.062500,4834331.500000,99.757500,0.8,0.8,0.8
315352.406250,4834351.000000,87.355659,0.8,0.8,0.8
315287.562500,4834350.500000,88.887802,0.8,0.8,0.8
315323.437500,4834388.000000,85.903000,0.8,0.8,0.8
315308.906250,4834332.000000,95.342392,0.8,0.8,0.8
315335.750000,4834358.000000,82.608238,0.8,0.8,0.8
315312.093750,4834321.000000,95.340843,0.8,0.8,0.8
315348.937500,4834388.500000,98.682098,0.8,0.8,0.8
315297.718750,4834430.500000,83.049843,0.8,0.8,0.8
315359.093750,4834345.500000,84.482307,0.8,0.8,0.8
315372.500000,4834351.500000,84.048058,0.8,0.8,0.8
315377.187500,4834315.000000,90.042000,0.8,0.8,0.8
315279.156250,4834421.500000,109.650452,0.8,0.8,0.8
315307.343750,4834382.500000,83.037201,0.8,0.8,0.8
315318.218750,4834375.500000,94.540840,0.8,0.8,0.8
315306.406250,4834387.000000,82.050972,0.8,0.8,0.8
315312.843750,4834386.000000,84.735504,0.8,0.8,0.8
315293.656250,4834352.500000,88.839073,0.8,0.8,0.8
315309.750000,4834396.500000,92.575447,0.8,0.8,0.8
315311.093750,4834392.500000,101.042038,0.8,0.8,0.8
315293.375000,4834387.000000,83.544334,0.8,0.8,0.8
315363.718750,4834384.500000,99.281700,0.8,0.8,0.8
315367.031250,4834421.500000,124.595100,0.8,0.8,0.8
315350.531250,4834369.000000,83.268188,0.8,0.8,0.8
315401.312500,4834362.000000,87.616402,0.8,0.8,0.8
315307.281250,4834339.000000,82.060249,0.8,0.8,0.8
315350.656250,4834321.500000,110.136299,0.8,0.8,0.8
315316.187500,4834382.000000,85.743767,0.8,0.8,0.8
315341.750000,4834340.500000,93.229897,0.8,0.8,0.8
315340.125000,4834369.000000,97.742630,0.8,0.8,0.8
315332.500000,4834395.500000,101.977661,0.8,0.8,0.8
315321.125000,4834353.500000,81.580070,0.8,0.8,0.8
315331.687500,4834347.500000,87.591202,0.8,0.8,0.8
315350.562500,4834373.500000,82.583099,0.8,0.8,0.8
315281.312500,4834422.000000,82.934677,0.8,0.8,0.8
315419.031250,4834381.000000,81.637100,0.8,0.8,0.8
315353.718750,4834323.000000,90.843338,0.8,0.8,0.8
315369.718750,4834413.000000,116.539398,0.8,0.8,0.8
315355.500000,4834371.500000,88.253601,0.8,0.8,0.8
315313.500000,4834401.500000,92.140175,0.8,0.8,0.8
315275.875000,4834430.000000,94.830399,0.8,0.8,0.8
315330.875000,4834391.500000,101.251694,0.8,0.8,0.8
315303.187500,4834415.500000,94.018501,0.8,0.8,0.8
315295.625000,4834372.500000,94.813354,0.8,0.8,0.8
315316.218750,4834401.000000,85.543922,0.8,0.8,0.8
315337.250000,4834312.500000,110.420448,0.8,0.8,0.8
315297.437500,4834335.500000,82.906548,0.8,0.8,0.8
315269.093750,4834323.500000,94.634354,0.8,0.8,0.8
315370.750000,4834309.000000,103.215698,0.8,0.8,0.8
315310.406250,4834408.000000,94.539131,0.8,0.8,0.8
315352.906250,4834370.500000,81.676231,0.8,0.8,0.8
315323.718750,4834357.500000,93.215813,0.8,0.8,0.8
315351.062500,4834386.000000,101.038452,0.8,0.8,0.8
315307.250000,4834413.000000,117.269699,0.8,0.8,0.8
315284.812500,4834406.500000,91.259354,0.8,0.8,0.8
315335.781250,4834365.500000,85.542152,0.8,0.8,0.8
315289.312500,4834352.000000,111.224403,0.8,0.8,0.8
315300.125000,4834429.500000,120.895599,0.8,0.8,0.8
315351.093750,4834351.000000,82.313698,0.8,0.8,0.8
315429.437500,4834401.500000,112.462601,0.8,0.8,0.8
315310.781250,4834385.000000,88.469902,0.8,0.8,0.8
315402.750000,4834365.000000,84.776199,0.8,0.8,0.8
315397.906250,4834318.500000,79.742996,0.8,0.8,0.8
315304.125000,4834359.500000,82.464890,0.8,0.8,0.8
315373.937500,4834354.500000,86.058777,0.8,0.8,0.8
315370.968750,4834368.500000,82.842903,0.8,0.8,0.8
315356.187500,4834346.000000,82.481934,0.8,0.8,0.8
315397.531250,4834383.000000,81.666832,0.8,0.8,0.8
315331.687500,4834344.000000,83.327560,0.8,0.8,0.8
315339.875000,4834304.500000,105.146599,0.8,0.8,0.8
315331.187500,4834329.000000,81.938103,0.8,0.8,0.8
315311.312500,4834372.000000,81.763130,0.8,0.8,0.8
315292.562500,4834381.000000,90.035606,0.8,0.8,0.8
315284.125000,4834406.000000,97.995102,0.8,0.8,0.8
315304.750000,4834402.000000,88.577652,0.8,0.8,0.8
315310.531250,4834394.000000,102.228302,0.8,0.8,0.8
315342.281250,4834402.000000,101.282394,0.8,0.8,0.8
315298.875000,4834365.500000,98.074303,0.8,0.8,0.8
315289.687500,4834381.500000,106.847298,0.8,0.8,0.8
315307.218750,4834373.000000,81.928192,0.8,0.8,0.8
315289.281250,4834394.000000,96.232101,0.8,0.8,0.8
315383.000000,4834380.500000,91.738754,0.8,0.8,0.8
315319.718750,4834403.500000,85.241180,0.8,0.8,0.8
315362.000000,4834346.000000,85.515800,0.8,0.8,0.8
315283.812500,4834407.500000,88.836670,0.8,0.8,0.8
315296.562500,4834369.000000,103.498199,0.8,0.8,0.8
315349.656250,4834382.500000,100.333344,0.8,0.8,0.8
315346.343750,4834350.500000,85.753273,0.8,0.8,0.8
315379.718750,4834343.000000,84.478699,0.8,0.8,0.8
315350.468750,4834347.000000,88.954903,0.8,0.8,0.8
315312.218750,4834408.500000,121.539101,0.8,0.8,0.8
315343.906250,4834396.000000,99.641670,0.8,0.8,0.8
315373.031250,4834388.500000,85.566849,0.8,0.8,0.8
315385.531250,4834382.000000,100.074303,0.8,0.8,0.8
315263.218750,4834329.000000,81.212799,0.8,0.8,0.8
315339.218750,4834304.000000,92.813599,0.8,0.8,0.8
315327.718750,4834406.000000,94.739441,0.8,0.8,0.8
315360.968750,4834394.500000,100.241127,0.8,0.8,0.8
315295.093750,4834353.000000,88.836227,0.8,0.8,0.8
315312.406250,4834288.000000,108.363098,0.8,0.8,0.8
315349.875000,4834367.500000,83.095703,0.8,0.8,0.8
315313.093750,4834385.500000,103.541763,0.8,0.8,0.8
315326.000000,4834362.000000,87.440071,0.8,0.8,0.8
315292.531250,4834334.500000,81.522903,0.8,0.8,0.8
315311.656250,4834400.000000,90.482498,0.8,0.8,0.8
315357.937500,4834325.000000,92.145340,0.8,0.8,0.8
315366.812500,4834324.000000,88.832558,0.8,0.8,0.8
315299.000000,4834428.000000,89.129730,0.8,0.8,0.8
315336.468750,4834384.000000,100.649460,0.8,0.8,0.8
315408.250000,4834376.000000,83.908203,0.8,0.8,0.8
315371.718750,4834310.500000,95.766296,0.8,0.8,0.8
315323.125000,4834362.000000,102.043152,0.8,0.8,0.8
315411.843750,4834387.000000,83.138100,0.8,0.8,0.8
315290.937500,4834388.000000,104.244797,0.8,0.8,0.8
315265.312500,4834322.500000,87.265198,0.8,0.8,0.8
315373.343750,4834376.500000,87.964600,0.8,0.8,0.8
315266.937500,4834449.000000,87.673798,0.8,0.8,0.8
315298.312500,4834375.000000,82.195305,0.8,0.8,0.8
315336.406250,4834351.000000,89.809151,0.8,0.8,0.8
315391.312500,4834382.500000,100.442574,0.8,0.8,0.8
315377.687500,4834356.000000,85.818947,0.8,0.8,0.8
315377.500000,4834356.000000,82.336708,0.8,0.8,0.8
315289.687500,4834417.000000,82.726372,0.8,0.8,0.8
315337.375000,4834347.500000,89.407204,0.8,0.8,0.8
315375.000000,4834340.000000,82.649200,0.8,0.8,0.8
315322.843750,4834362.000000,83.904343,0.8,0.8,0.8
315320.312500,4834360.500000,83.551743,0.8,0.8,0.8
315348.031250,4834352.500000,89.702141,0.8,0.8,0.8
315293.500000,4834401.500000,82.387177,0.8,0.8,0.8
315424.781250,4834396.000000,113.758904,0.8,0.8,0.8
315349.625000,4834321.000000,109.339592,0.8,0.8,0.8
315419.437500,4834401.000000,93.783203,0.8,0.8,0.8
315355.343750,4834370.500000,85.098061,0.8,0.8,0.8
315354.500000,4834323.500000,93.639709,0.8,0.8,0.8
315313.531250,4834401.500000,88.040924,0.8,0.8,0.8
315296.000000,4834389.500000,82.249573,0.8,0.8,0.8
315335.343750,4834318.000000,89.844299,0.8,0.8,0.8
315340.125000,4834350.000000,87.181274,0.8,0.8,0.8
315320.843750,4834375.500000,98.688904,0.8,0.8,0.8
315429.718750,4834373.000000,88.984703,0.8,0.8,0.8
315432.125000,4834366.000000,91.344902,0.8,0.8,0.8
315373.343750,4834376.500000,83.147202,0.8,0.8,0.8
315280.062500,4834418.500000,97.348396,0.8,0.8,0.8
315301.718750,4834362.500000,81.888313,0.8,0.8,0.8
315333.781250,4834347.500000,84.271133,0.8,0.8,0.8
315315.343750,4834383.000000,95.292900,0.8,0.8,0.8
315336.750000,4834337.000000,96.357201,0.8,0.8,0.8
315379.125000,4834373.000000,88.311501,0.8,0.8,0.8
315351.062500,4834349.000000,93.133247,0.8,0.8,0.8
315309.718750,4834329.500000,91.641258,0.8,0.8,0.8
315295.812500,4834353.000000,100.435081,0.8,0.8,0.8
315320.406250,4834290.000000,103.562500,0.8,0.8,0.8
315328.687500,4834337.000000,90.722115,0.8,0.8,0.8
315289.125000,4834390.000000,91.842896,0.8,0.8,0.8
315283.593750,4834327.500000,92.443359,0.8,0.8,0.8
315278.906250,4834423.000000,87.734077,0.8,0.8,0.8
315329.218750,4834360.500000,82.742531,0.8,0.8,0.8
315323.531250,4834373.000000,102.059052,0.8,0.8,0.8
315294.312500,4834378.000000,106.739136,0.8,0.8,0.8
315323.906250,4834342.500000,87.150002,0.8,0.8,0.8
315338.062500,4834354.500000,89.345970,0.8,0.8,0.8
315400.031250,4834365.000000,89.580299,0.8,0.8,0.8
315393.687500,4834379.500000,84.354149,0.8,0.8,0.8
315311.312500,4834404.000000,82.417534,0.8,0.8,0.8
315390.562500,4834379.500000,84.713097,0.8,0.8,0.8
315316.375000,4834394.500000,99.640945,0.8,0.8,0.8
315339.906250,4834345.500000,84.840630,0.8,0.8,0.8
315333.750000,4834320.500000,83.575203,0.8,0.8,0.8
315316.187500,4834385.500000,83.448051,0.8,0.8,0.8
315286.906250,4834386.500000,84.674301,0.8,0.8,0.8
315294.750000,4834375.500000,107.542908,0.8,0.8,0.8
315288.250000,4834394.000000,94.539459,0.8,0.8,0.8
315313.906250,4834401.500000,82.582878,0.8,0.8,0.8
315394.343750,4834384.500000,93.873299,0.8,0.8,0.8
315336.093750,4834343.500000,83.947777,0.8,0.8,0.8
315282.031250,4834415.500000,100.784401,0.8,0.8,0.8
315304.750000,4834408.000000,83.752403,0.8,0.8,0.8
315386.312500,4834363.500000,81.528725,0.8,0.8,0.8
315393.718750,4834383.500000,92.213585,0.8,0.8,0.8
315354.500000,4834371.500000,87.239929,0.8,0.8,0.8
315402.875000,4834374.500000,81.626198,0.8,0.8,0.8
315282.500000,4834403.500000,93.670883,0.8,0.8,0.8
315306.250000,4834415.500000,110.137001,0.8,0.8,0.8
315426.250000,4834393.000000,86.441399,0.8,0.8,0.8
315325.250000,4834403.000000,100.437622,0.8,0.8,0.8
315281.562500,4834414.500000,96.938644,0.8,0.8,0.8
315288.500000,4834328.500000,95.366135,0.8,0.8,0.8
315394.343750,4834315.000000,56.869099,0.8,0.8,0.8
315324.531250,4834365.000000,99.578300,0.8,0.8,0.8
315366.000000,4834346.000000,84.576103,0.8,0.8,0.8
315306.218750,4834340.000000,88.335083,0.8,0.8,0.8
315279.812500,4834419.500000,106.735321,0.8,0.8,0.8
315319.625000,4834354.500000,83.402443,0.8,0.8,0.8
315352.093750,4834364.000000,82.824532,0.8,0.8,0.8
315318.531250,4834363.500000,87.480202,0.8,0.8,0.8
315376.750000,4834392.500000,127.472801,0.8,0.8,0.8
315352.125000,4834322.000000,89.039574,0.8,0.8,0.8
315352.656250,4834347.000000,87.822426,0.8,0.8,0.8
315329.843750,4834355.000000,84.878899,0.8,0.8,0.8
315297.593750,4834367.500000,85.875702,0.8,0.8,0.8
315315.406250,4834407.500000,112.131699,0.8,0.8,0.8
315392.468750,4834384.000000,99.568199,0.8,0.8,0.8
315280.125000,4834417.000000,98.439697,0.8,0.8,0.8
315391.250000,4834365.500000,81.434998,0.8,0.8,0.8
315316.125000,4834386.000000,100.415405,0.8,0.8,0.8
315281.968750,4834416.000000,101.306900,0.8,0.8,0.8
315334.625000,4834403.500000,100.499138,0.8,0.8,0.8
315378.281250,4834385.500000,102.840302,0.8,0.8,0.8
315318.625000,4834404.000000,82.372421,0.8,0.8,0.8
315355.687500,4834353.500000,88.972809,0.8,0.8,0.8
315281.406250,4834418.000000,86.235649,0.8,0.8,0.8
315310.718750,4834392.500000,90.442101,0.8,0.8,0.8
315359.625000,4834349.500000,81.625343,0.8,0.8,0.8
315349.625000,4834347.000000,85.105156,0.8,0.8,0.8
315343.218750,4834381.500000,98.304100,0.8,0.8,0.8
315434.218750,4834375.000000,92.861000,0.8,0.8,0.8
315363.718750,4834364.000000,81.653244,0.8,0.8,0.8
315315.187500,4834347.000000,84.566803,0.8,0.8,0.8
315299.062500,4834421.500000,82.990601,0.8,0.8,0.8
315298.531250,4834354.500000,106.747704,0.8,0.8,0.8
315359.406250,4834373.000000,82.341431,0.8,0.8,0.8
315344.812500,4834379.500000,89.753685,0.8,0.8,0.8
315353.968750,4834383.500000,83.137489,0.8,0.8,0.8
315293.468750,4834379.500000,96.241035,0.8,0.8,0.8
315328.781250,4834322.500000,85.014198,0.8,0.8,0.8
315376.375000,4834392.000000,120.435951,0.8,0.8,0.8
315289.156250,4834388.000000,93.200699,0.8,0.8,0.8
315374.093750,4834368.500000,81.655579,0.8,0.8,0.8
315367.562500,4834419.000000,94.258202,0.8,0.8,0.8
315369.906250,4834318.500000,104.307503,0.8,0.8,0.8
315402.437500,4834369.500000,89.260498,0.8,0.8,0.8
315308.906250,4834330.000000,87.120758,0.8,0.8,0.8
