x,y,z,r,g,b
315288.812500,4834356.500000,108.353851,0.8,0.8,0.8
315333.406250,4834373.500000,101.243668,0.8,0.8,0.8
315385.906250,4834359.000000,90.334846,0.8,0.8,0.8
315300.906250,4834354.500000,105.951851,0.8,0.8,0.8
315286.812500,4834396.000000,91.384499,0.8,0.8,0.8
315359.562500,4834375.000000,97.939400,0.8,0.8,0.8
315314.031250,4834332.000000,81.273666,0.8,0.8,0.8
315302.343750,4834408.500000,85.766502,0.8,0.8,0.8
315343.625000,4834378.500000,98.751694,0.8,0.8,0.8
315339.625000,4834350.000000,83.751198,0.8,0.8,0.8
315292.406250,4834389.500000,82.471703,0.8,0.8,0.8
315326.031250,4834349.500000,81.588371,0.8,0.8,0.8
315320.718750,4834360.000000,83.140793,0.8,0.8,0.8
315385.468750,4834378.000000,98.680298,0.8,0.8,0.8
315350.968750,4834396.000000,86.935898,0.8,0.8,0.8
315276.031250,4834336.500000,87.145699,0.8,0.8,0.8
315419.000000,4834403.000000,119.802002,0.8,0.8,0.8
315374.312500,4834342.000000,84.113297,0.8,0.8,0.8
315296.937500,4834364.500000,96.380203,0.8,0.8,0.8
315341.750000,4834350.000000,82.272522,0.8,0.8,0.8
315290.593750,4834343.500000,81.559998,0.8,0.8,0.8
315341.343750,4834342.000000,91.241219,0.8,0.8,0.8
315426.937500,4834382.000000,87.208900,0.8,0.8,0.8
315374.875000,4834365.500000,92.513397,0.8,0.8,0.8
315317.875000,4834396.000000,102.083023,0.8,0.8,0.8
315363.531250,4834429.000000,111.828903,0.8,0.8,0.8
315300.843750,4834356.500000,85.281868,0.8,0.8,0.8
315328.843750,4834382.500000,98.740265,0.8,0.8,0.8
315346.531250,4834373.500000,84.741035,0.8,0.8,0.8
315334.500000,4834352.500000,82.049728,0.8,0.8,0.8
315372.937500,4834386.000000,97.769798,0.8,0.8,0.8
315393.156250,4834371.500000,81.644600,0.8,0.8,0.8
315367.937500,4834419.000000,118.578598,0.8,0.8,0.8
315366.156250,4834389.500000,89.008751,0.8,0.8,0.8
315332.312500,4834361.500000,81.618797,0.8,0.8,0.8
315341.500000,4834367.000000,81.676155,0.8,0.8,0.8
315311.187500,4834326.000000,81.321922,0.8,0.8,0.8
315293.562500,4834378.000000,94.341125,0.8,0.8,0.8
315253.406250,4834329.500000,94.935204,0.8,0.8,0.8
315281.812500,4834440.000000,82.536499,0.8,0.8,0.8
315377.437500,4834384.500000,80.708740,0.8,0.8,0.8
315318.343750,4834388.500000,101.673012,0.8,0.8,0.8
315364.031250,4834346.500000,84.641510,0.8,0.8,0.8
315300.718750,4834357.500000,93.241714,0.8,0.8,0.8
315374.625000,4834367.000000,86.655548,0.8,0.8,0.8
315329.656250,4834336.000000,93.065804,0.8,0.8,0.8
315321.500000,4834388.000000,98.728638,0.8,0.8,0.8
315320.156250,4834364.000000,89.043480,0.8,0.8,0.8
315316.218750,4834381.500000,100.384628,0.8,0.8,0.8
315380.843750,4834363.500000,83.652298,0.8,0.8,0.8
315293.812500,4834436.000000,89.638298,0.8,0.8,0.8
315310.812500,4834392.000000,89.232010,0.8,0.8,0.8
315359.218750,4834381.000000,84.955856,0.8,0.8,0.8
315343.312500,4834337.000000,84.426003,0.8,0.8,0.8
315379.687500,4834381.000000,101.441246,0.8,0.8,0.8
315426.625000,4834382.000000,83.275398,0.8,0.8,0.8
315321.437500,4834366.000000,100.841507,0.8,0.8,0.8
315317.593750,4834372.000000,94.041039,0.8,0.8,0.8
315307.250000,4834406.500000,84.914101,0.8,0.8,0.8
315397.281250,4834321.000000,93.236954,0.8,0.8,0.8
315350.781250,4834379.000000,86.683098,0.8,0.8,0.8
315367.312500,4834324.500000,106.957748,0.8,0.8,0.8
315345.531250,4834368.500000,102.883499,0.8,0.8,0.8
315384.125000,4834388.000000,114.871277,0.8,0.8,0.8
315307.718750,4834361.000000,81.685158,0.8,0.8,0.8
315318.718750,4834353.000000,84.213203,0.8,0.8,0.8
315310.468750,4834323.000000,84.524200,0.8,0.8,0.8
315302.281250,4834363.000000,84.340202,0.8,0.8,0.8
315341.500000,4834319.500000,107.541336,0.8,0.8,0.8
315423.562500,4834373.500000,82.694267,0.8,0.8,0.8
315331.000000,4834357.000000,81.558990,0.8,0.8,0.8
315324.750000,4834344.000000,82.780197,0.8,0.8,0.8
315285.218750,4834403.000000,93.450027,0.8,0.8,0.8
315355.031250,4834373.500000,99.894302,0.8,0.8,0.8
315310.625000,4834319.000000,81.668457,0.8,0.8,0.8
315275.937500,4834326.000000,97.166901,0.8,0.8,0.8
315277.531250,4834413.500000,95.339500,0.8,0.8,0.8
315300.625000,4834395.000000,100.071114,0.8,0.8,0.8
315349.250000,4834361.500000,85.544662,0.8,0.8,0.8
315309.562500,4834349.500000,82.341049,0.8,0.8,0.8
315307.625000,4834345.500000,88.481697,0.8,0.8,0.8
315431.531250,4834396.000000,94.551178,0.8,0.8,0.8
315299.437500,4834354.000000,93.843964,0.8,0.8,0.8
315308.906250,4834329.500000,86.067703,0.8,0.8,0.8
315384.093750,4834359.000000,89.339630,0.8,0.8,0.8
315330.062500,4834342.000000,86.421249,0.8,0.8,0.8
315358.968750,4834389.500000,100.099251,0.8,0.8,0.8
315432.593750,4834374.000000,86.036301,0.8,0.8,0.8
315312.531250,4834390.000000,102.040985,0.8,0.8,0.8
315304.187500,4834403.000000,83.135475,0.8,0.8,0.8
315373.750000,4834353.000000,91.059731,0.8,0.8,0.8
315339.125000,4834307.000000,105.625740,0.8,0.8,0.8
315368.687500,4834413.500000,110.087196,0.8,0.8,0.8
315398.812500,4834381.000000,81.612152,0.8,0.8,0.8
315361.250000,4834390.000000,97.583801,0.8,0.8,0.8
315351.500000,4834366.000000,92.752975,0.8,0.8,0.8
315359.343750,4834380.500000,99.744736,0.8,0.8,0.8
315378.562500,4834360.500000,88.169403,0.8,0.8,0.8
315269.093750,4834417.000000,86.366203,0.8,0.8,0.8
315359.187500,4834377.500000,86.437309,0.8,0.8,0.8
315312.281250,4834394.500000,105.371498,0.8,0.8,0.8
315301.625000,4834333.000000,93.445602,0.8,0.8,0.8
315347.687500,4834322.500000,99.830002,0.8,0.8,0.8
315283.531250,4834411.000000,84.429001,0.8,0.8,0.8
315308.093750,4834348.500000,89.473000,0.8,0.8,0.8
315255.343750,4834319.500000,93.401802,0.8,0.8,0.8
315310.156250,4834416.500000,117.474297,0.8,0.8,0.8
315352.000000,4834375.000000,84.338745,0.8,0.8,0.8
315297.500000,4834427.500000,83.012459,0.8,0.8,0.8
315341.812500,4834325.000000,95.533058,0.8,0.8,0.8
315343.343750,4834398.000000,101.347038,0.8,0.8,0.8
315335.031250,4834333.000000,88.173897,0.8,0.8,0.8
315322.968750,4834368.500000,98.626297,0.8,0.8,0.8
315380.625000,4834368.500000,82.843018,0.8,0.8,0.8
315315.750000,4834383.000000,98.234909,0.8,0.8,0.8
315323.406250,4834370.500000,86.937767,0.8,0.8,0.8
315415.906250,4834390.000000,107.810898,0.8,0.8,0.8
315367.562500,4834419.000000,91.725731,0.8,0.8,0.8
315268.437500,4834345.000000,102.267799,0.8,0.8,0.8
315279.343750,4834421.000000,108.151169,0.8,0.8,0.8
315279.906250,4834333.000000,88.973297,0.8,0.8,0.8
315310.687500,4834390.500000,82.301300,0.8,0.8,0.8
315358.406250,4834364.000000,83.938904,0.8,0.8,0.8
315347.656250,4834391.500000,101.248199,0.8,0.8,0.8
315282.625000,4834408.000000,99.920197,0.8,0.8,0.8
315340.562500,4834344.500000,85.040062,0.8,0.8,0.8
315334.218750,4834436.500000,107.261353,0.8,0.8,0.8
315415.750000,4834363.500000,85.285400,0.8,0.8,0.8
315315.812500,4834289.500000,100.646317,0.8,0.8,0.8
315386.625000,4834388.500000,119.142998,0.8,0.8,0.8
315302.812500,4834411.500000,83.641739,0.8,0.8,0.8
315277.093750,4834325.500000,88.276604,0.8,0.8,0.8
315330.906250,4834342.500000,96.141022,0.8,0.8,0.8
315356.625000,4834366.500000,81.535393,0.8,0.8,0.8
315401.531250,4834361.500000,88.236282,0.8,0.8,0.8
315306.875000,4834329.500000,82.641022,0.8,0.8,0.8
315296.000000,4834353.000000,88.031548,0.8,0.8,0.8
315310.687500,4834384.500000,84.728516,0.8,0.8,0.8
315366.250000,4834379.000000,99.820435,0.8,0.8,0.8
315324.906250,4834350.500000,81.587303,0.8,0.8,0.8
315286.656250,4834398.000000,98.343483,0.8,0.8,0.8
315267.687500,4834344.500000,90.775398,0.8,0.8,0.8
315321.531250,4834397.500000,99.441833,0.8,0.8,0.8
315400.750000,4834364.500000,84.441902,0.8,0.8,0.8
315319.812500,4834358.000000,83.445984,0.8,0.8,0.8
315357.000000,4834358.500000,82.801224,0.8,0.8,0.8
315281.687500,4834416.000000,107.245399,0.8,0.8,0.8
315331.843750,4834334.500000,96.128433,0.8,0.8,0.8
315342.406250,4834367.500000,103.843849,0.8,0.8,0.8
315413.312500,4834387.000000,83.153198,0.8,0.8,0.8
315309.656250,4834395.500000,85.571449,0.8,0.8,0.8
315341.906250,4834353.500000,84.410599,0.8,0.8,0.8
315427.406250,4834372.500000,85.054199,0.8,0.8,0.8
315363.343750,4834433.500000,124.329453,0.8,0.8,0.8
315353.312500,4834380.000000,99.061348,0.8,0.8,0.8
315323.937500,4834370.000000,85.671097,0.8,0.8,0.8
315300.437500,4834424.500000,100.196198,0.8,0.8,0.8
315421.218750,4834396.500000,96.557503,0.8,0.8,0.8
315337.625000,4834366.000000,91.250443,0.8,0.8,0.8
315434.500000,4834373.500000,81.340897,0.8,0.8,0.8
315346.843750,4834406.000000,100.249184,0.8,0.8,0.8
315345.812500,4834371.500000,99.518021,0.8,0.8,0.8
315302.812500,4834351.000000,81.532722,0.8,0.8,0.8
315300.718750,4834413.500000,85.415100,0.8,0.8,0.8
315301.750000,4834336.500000,85.959396,0.8,0.8,0.8
315327.000000,4834342.000000,81.633408,0.8,0.8,0.8
315329.781250,4834350.000000,86.805000,0.8,0.8,0.8
315365.843750,4834370.500000,83.724152,0.8,0.8,0.8
315276.781250,4834412.500000,94.821899,0.8,0.8,0.8
315314.656250,4834394.000000,99.473396,0.8,0.8,0.8
315430.718750,4834373.500000,85.409203,0.8,0.8,0.8
315343.906250,4834390.500000,100.341949,0.8,0.8,0.8
315353.312500,4834322.000000,95.435150,0.8,0.8,0.8
315357.968750,4834325.000000,103.142303,0.8,0.8,0.8
315364.718750,4834374.000000,81.684189,0.8,0.8,0.8
315365.125000,4834375.000000,97.754646,0.8,0.8,0.8
315359.406250,4834372.500000,86.042641,0.8,0.8,0.8
315349.750000,4834301.000000,92.561203,0.8,0.8,0.8
315281.906250,4834413.000000,108.641098,0.8,0.8,0.8
315378.500000,4834388.000000,108.871452,0.8,0.8,0.8
315321.187500,4834389.000000,102.086052,0.8,0.8,0.8
315325.312500,4834362.000000,89.131279,0.8,0.8,0.8
315344.156250,4834337.000000,84.943298,0.8,0.8,0.8
315328.531250,4834406.000000,105.181297,0.8,0.8,0.8
315312.656250,4834400.500000,104.806000,0.8,0.8,0.8
315312.406250,4834336.000000,88.824600,0.8,0.8,0.8
315383.281250,4834383.000000,82.834557,0.8,0.8,0.8
315334.968750,4834350.500000,88.665901,0.8,0.8,0.8
315331.843750,4834338.000000,90.254303,0.8,0.8,0.8
315350.218750,4834375.500000,81.700462,0.8,0.8,0.8
315317.343750,4834378.500000,91.268997,0.8,0.8,0.8
315312.062500,4834393.000000,94.679749,0.8,0.8,0.8
315381.562500,4834381.000000,81.653999,0.8,0.8,0.8
315342.531250,4834355.500000,82.342216,0.8,0.8,0.8
315310.156250,4834395.500000,93.740463,0.8,0.8,0.8
315325.687500,4834344.500000,82.632004,0.8,0.8,0.8
315396.218750,4834321.000000,93.050102,0.8,0.8,0.8
315316.875000,4834375.500000,87.239342,0.8,0.8,0.8
315389.093750,4834360.500000,91.659500,0.8,0.8,0.8
315375.343750,4834355.500000,86.613602,0.8,0.8,0.8
315348.187500,4834369.500000,104.340698,0.8,0.8,0.8
315345.250000,4834375.500000,87.276749,0.8,0.8,0.8
315262.531250,4834321.500000,84.159500,0.8,0.8,0.8
315289.343750,4834351.000000,83.093498,0.8,0.8,0.8
315290.750000,4834381.000000,83.165100,0.8,0.8,0.8
315357.500000,4834382.500000,103.847389,0.8,0.8,0.8
315338.312500,4834332.000000,83.568047,0.8,0.8,0.8
315299.625000,4834431.000000,101.589401,0.8,0.8,0.8
315294.750000,4834377.500000,99.630554,0.8,0.8,0.8
315352.125000,4834362.000000,88.704498,0.8,0.8,0.8
315282.093750,4834415.000000,97.337151,0.8,0.8,0.8
315287.437500,4834396.000000,90.440125,0.8,0.8,0.8
315338.343750,4834341.000000,81.775497,0.8,0.8,0.8
315329.718750,4834369.000000,102.075600,0.8,0.8,0.8
315328.718750,4834380.000000,95.428703,0.8,0.8,0.8
315408.562500,4834387.000000,81.629303,0.8,0.8,0.8
315330.406250,4834333.500000,93.455101,0.8,0.8,0.8
315307.218750,4834406.500000,95.340668,0.8,0.8,0.8
315311.062500,4834393.500000,104.339050,0.8,0.8,0.8
315387.187500,4834381.000000,102.679100,0.8,0.8,0.8
315392.437500,4834355.500000,83.340446,0.8,0.8,0.8
315374.562500,4834324.500000,90.964752,0.8,0.8,0.8
315361.312500,4834326.000000,92.043526,0.8,0.8,0.8
315286.875000,4834388.500000,86.812126,0.8,0.8,0.8
315371.937500,4834373.500000,92.803802,0.8,0.8,0.8
315348.125000,4834322.000000,98.940018,0.8,0.8,0.8
315296.812500,4834330.500000,94.538231,0.8,0.8,0.8
315304.000000,4834332.000000,87.135696,0.8,0.8,0.8
315297.437500,4834354.500000,93.262398,0.8,0.8,0.8
315353.312500,4834372.500000,93.788803,0.8,0.8,0.8
315309.218750,4834290.000000,104.439301,0.8,0.8,0.8
315389.656250,4834377.000000,81.542099,0.8,0.8,0.8
315296.968750,4834368.000000,109.139801,0.8,0.8,0.8
315377.687500,4834313.500000,89.656647,0.8,0.8,0.8
315376.812500,4834387.500000,79.948868,0.8,0.8,0.8
315317.406250,4834341.000000,83.380798,0.8,0.8,0.8
315358.781250,4834363.500000,82.635803,0.8,0.8,0.8
315327.781250,4834323.000000,86.524498,0.8,0.8,0.8
315340.125000,4834380.000000,86.925453,0.8,0.8,0.8
315348.906250,4834374.500000,82.709000,0.8,0.8,0.8
315366.000000,4834324.000000,109.844803,0.8,0.8,0.8
315345.468750,4834376.000000,88.401253,0.8,0.8,0.8
315389.812500,4834372.500000,81.643539,0.8,0.8,0.8
315319.656250,4834378.500000,98.802528,0.8,0.8,0.8
315322.093750,4834404.000000,99.415398,0.8,0.8,0.8
315425.468750,4834396.500000,113.874199,0.8,0.8,0.8
315318.968750,4834328.500000,80.941498,0.8,0.8,0.8
315343.406250,4834354.000000,81.586693,0.8,0.8,0.8
315293.375000,4834367.000000,83.711304,0.8,0.8,0.8
315323.625000,4834347.500000,84.767700,0.8,0.8,0.8
315303.187500,4834417.500000,92.868698,0.8,0.8,0.8
315276.656250,4834430.000000,86.538651,0.8,0.8,0.8
315294.437500,4834376.000000,89.612648,0.8,0.8,0.8
315368.031250,4834359.000000,87.734955,0.8,0.8,0.8
315299.625000,4834426.500000,90.653465,0.8,0.8,0.8
315329.343750,4834365.500000,99.455803,0.8,0.8,0.8
315367.937500,4834358.500000,89.094803,0.8,0.8,0.8
315349.843750,4834384.000000,99.811249,0.8,0.8,0.8
315320.625000,4834396.500000,98.789047,0.8,0.8,0.8
315377.000000,4834327.500000,89.443100,0.8,0.8,0.8
315374.093750,4834326.000000,86.681396,0.8,0.8,0.8
315290.343750,4834352.000000,106.941330,0.8,0.8,0.8
315320.406250,4834290.500000,96.456299,0.8,0.8,0.8
315365.062500,4834366.500000,82.941666,0.8,0.8,0.8
315303.343750,4834416.500000,82.969383,0.8,0.8,0.8
315310.750000,4834326.000000,88.049126,0.8,0.8,0.8
315290.812500,4834386.500000,87.738983,0.8,0.8,0.8
315273.781250,4834455.000000,90.635498,0.8,0.8,0.8
315312.218750,4834408.500000,89.628075,0.8,0.8,0.8
315335.343750,4834408.000000,82.941650,0.8,0.8,0.8
315297.187500,4834354.500000,103.467598,0.8,0.8,0.8
315280.500000,4834390.500000,85.843658,0.8,0.8,0.8
315323.937500,4834405.500000,82.312531,0.8,0.8,0.8
315340.906250,4834360.000000,81.577194,0.8,0.8,0.8
315375.031250,4834363.500000,81.601646,0.8,0.8,0.8
315290.312500,4834390.500000,100.227631,0.8,0.8,0.8
315332.593750,4834383.500000,100.439850,0.8,0.8,0.8
315371.937500,4834377.500000,95.626968,0.8,0.8,0.8
315313.468750,4834364.000000,83.241547,0.8,0.8,0.8
315366.781250,4834363.000000,92.341400,0.8,0.8,0.8
315384.687500,4834359.500000,89.135063,0.8,0.8,0.8
315337.093750,4834312.500000,98.238800,0.8,0.8,0.8
315350.468750,4834353.000000,91.289299,0.8,0.8,0.8
315330.312500,4834367.000000,101.537918,0.8,0.8,0.8
315353.125000,4834371.000000,93.139038,0.8,0.8,0.8
315397.718750,4834384.500000,93.935753,0.8,0.8,0.8
315365.125000,4834386.000000,100.708153,0.8,0.8,0.8
315328.843750,4834346.500000,88.273857,0.8,0.8,0.8
315367.750000,4834349.000000,90.456802,0.8,0.8,0.8
315352.781250,4834387.000000,85.542419,0.8,0.8,0.8
315308.593750,4834417.000000,128.440506,0.8,0.8,0.8
315378.343750,4834351.500000,86.712196,0.8,0.8,0.8
315312.468750,4834399.500000,87.254898,0.8,0.8,0.8
315268.750000,4834451.500000,83.216797,0.8,0.8,0.8
315268.187500,4834450.500000,90.658096,0.8,0.8,0.8
315343.562500,4834337.000000,91.251900,0.8,0.8,0.8
315378.781250,4834353.500000,91.522667,0.8,0.8,0.8
315334.562500,4834320.000000,94.655602,0.8,0.8,0.8
315288.906250,4834458.000000,88.834724,0.8,0.8,0.8
315325.718750,4834371.000000,102.077713,0.8,0.8,0.8
315336.562500,4834366.000000,104.338623,0.8,0.8,0.8
315367.000000,4834414.500000,99.848602,0.8,0.8,0.8
315349.406250,4834322.000000,89.237846,0.8,0.8,0.8
315308.343750,4834420.000000,119.814400,0.8,0.8,0.8
315390.500000,4834382.500000,90.924667,0.8,0.8,0.8
315306.812500,4834329.000000,83.431442,0.8,0.8,0.8
315299.562500,4834354.000000,99.818932,0.8,0.8,0.8
315370.562500,4834410.500000,109.275803,0.8,0.8,0.8
315378.531250,4834385.500000,80.887901,0.8,0.8,0.8
315304.406250,4834371.500000,81.884697,0.8,0.8,0.8
315335.125000,4834394.500000,101.977936,0.8,0.8,0.8
315274.750000,4834351.000000,110.821602,0.8,0.8,0.8
315330.218750,4834350.000000,82.732948,0.8,0.8,0.8
315369.250000,4834360.500000,78.929199,0.8,0.8,0.8
315331.187500,4834407.000000,97.984100,0.8,0.8,0.8
315383.156250,4834368.500000,86.344902,0.8,0.8,0.8
315387.968750,4834381.000000,81.656731,0.8,0.8,0.8
315321.812500,4834332.000000,86.734154,0.8,0.8,0.8
315374.218750,4834381.500000,83.789101,0.8,0.8,0.8
315346.906250,4834301.500000,90.038300,0.8,0.8,0.8
315331.000000,4834373.000000,99.039841,0.8,0.8,0.8
315364.906250,4834356.500000,87.334801,0.8,0.8,0.8
315335.000000,4834371.500000,98.719604,0.8,0.8,0.8
315281.531250,4834420.500000,82.913696,0.8,0.8,0.8
315381.125000,4834376.500000,89.744347,0.8,0.8,0.8
315272.000000,4834346.000000,97.963097,0.8,0.8,0.8
315326.718750,4834338.500000,85.436768,0.8,0.8,0.8
315317.218750,4834393.500000,102.776741,0.8,0.8,0.8
315373.562500,4834373.000000,90.673500,0.8,0.8,0.8
315371.750000,4834407.500000,124.985603,0.8,0.8,0.8
315368.218750,4834320.000000,106.050964,0.8,0.8,0.8
315294.812500,4834454.000000,83.775497,0.8,0.8,0.8
315297.375000,4834386.500000,87.904152,0.8,0.8,0.8
315295.031250,4834386.000000,100.101898,0.8,0.8,0.8
315335.218750,4834365.500000,101.038521,0.8,0.8,0.8
315327.625000,4834367.000000,101.603500,0.8,0.8,0.8
315273.406250,4834346.500000,94.524101,0.8,0.8,0.8
315286.781250,4834396.500000,86.185204,0.8,0.8,0.8
315342.593750,4834388.000000,101.627899,0.8,0.8,0.8
315372.500000,4834381.000000,99.124878,0.8,0.8,0.8
315295.812500,4834450.500000,103.429726,0.8,0.8,0.8
315320.343750,4834376.000000,99.768013,0.8,0.8,0.8
315334.156250,4834322.000000,90.634804,0.8,0.8,0.8
315367.093750,4834427.000000,127.444778,0.8,0.8,0.8
315340.843750,4834361.500000,88.313400,0.8,0.8,0.8
315347.218750,4834366.000000,81.648453,0.8,0.8,0.8
315417.781250,4834369.500000,83.122849,0.8,0.8,0.8
315360.406250,4834396.500000,101.991646,0.8,0.8,0.8
315316.625000,4834333.000000,81.316826,0.8,0.8,0.8
315320.750000,4834363.500000,94.194504,0.8,0.8,0.8
315316.312500,4834300.000000,84.154846,0.8,0.8,0.8
315328.031250,4834343.000000,86.901604,0.8,0.8,0.8
315288.093750,4834370.000000,107.908203,0.8,0.8,0.8
315362.937500,4834400.000000,100.737396,0.8,0.8,0.8
315385.812500,4834381.000000,91.245590,0.8,0.8,0.8
315285.593750,4834350.000000,81.692398,0.8,0.8,0.8
315353.312500,4834396.000000,101.141037,0.8,0.8,0.8
315280.937500,4834418.500000,108.194801,0.8,0.8,0.8
315290.531250,4834335.500000,86.929802,0.8,0.8,0.8
315332.968750,4834325.500000,84.254997,0.8,0.8,0.8
315429.937500,4834397.000000,111.371399,0.8,0.8,0.8
315322.218750,4834363.000000,85.461609,0.8,0.8,0.8
315276.750000,4834429.000000,109.726501,0.8,0.8,0.8
315326.000000,4834362.500000,102.740189,0.8,0.8,0.8
315303.218750,4834367.500000,81.788498,0.8,0.8,0.8
315348.937500,4834371.000000,99.968872,0.8,0.8,0.8
315352.312500,4834382.500000,102.003067,0.8,0.8,0.8
315257.093750,4834458.500000,104.367699,0.8,0.8,0.8
315330.875000,4834313.000000,85.043854,0.8,0.8,0.8
315365.687500,4834390.000000,78.673203,0.8,0.8,0.8
315362.437500,4834395.500000,82.479797,0.8,0.8,0.8
315321.125000,4834384.000000,102.050301,0.8,0.8,0.8
315287.656250,4834396.000000,89.633636,0.8,0.8,0.8
315371.750000,4834363.500000,84.836197,0.8,0.8,0.8
315346.906250,4834377.500000,89.301552,0.8,0.8,0.8
315324.531250,4834336.000000,81.278061,0.8,0.8,0.8
315314.812500,4834313.000000,93.440460,0.8,0.8,0.8
315346.000000,4834344.500000,83.623299,0.8,0.8,0.8
315429.750000,4834396.000000,100.851601,0.8,0.8,0.8
315375.031250,4834358.000000,82.250481,0.8,0.8,0.8
315346.781250,4834393.000000,100.488144,0.8,0.8,0.8
315286.343750,4834400.000000,94.869499,0.8,0.8,0.8
315333.875000,4834320.500000,91.624268,0.8,0.8,0.8
315308.843750,4834361.500000,97.254677,0.8,0.8,0.8
315313.750000,4834316.500000,82.846153,0.8,0.8,0.8
315358.031250,4834357.500000,85.863434,0.8,0.8,0.8
315311.906250,4834323.500000,84.136086,0.8,0.8,0.8
315313.437500,4834385.500000,98.840164,0.8,0.8,0.8
315299.000000,4834433.500000,117.954330,0.8,0.8,0.8
315332.218750,4834341.500000,92.047798,0.8,0.8,0.8
315356.125000,4834373.000000,101.980865,0.8,0.8,0.8
315281.531250,4834457.000000,86.130547,0.8,0.8,0.8
315416.375000,4834369.500000,81.547897,0.8,0.8,0.8
315255.500000,4834319.000000,82.731796,0.8,0.8,0.8
315255.500000,4834319.000000,84.083397,0.8,0.8,0.8
315255.968750,4834319.500000,85.243103,0.8,0.8,0.8
315258.187500,4834320.500000,83.623199,0.8,0.8,0.8
315321.718750,4834348.000000,81.580177,0.8,0.8,0.8
315265.312500,4834322.500000,83.830948,0.8,0.8,0.8
315268.468750,4834323.000000,84.826698,0.8,0.8,0.8
315317.531250,4834381.500000,99.934250,0.8,0.8,0.8
315312.625000,4834407.000000,82.368263,0.8,0.8,0.8
315254.062500,4834319.000000,85.954247,0.8,0.8,0.8
315265.593750,4834322.500000,88.450951,0.8,0.8,0.8
315273.406250,4834446.000000,85.430519,0.8,0.8,0.8
315331.406250,4834348.000000,82.940361,0.8,0.8,0.8
315352.031250,4834301.500000,91.920998,0.8,0.8,0.8
315263.000000,4834332.500000,84.543800,0.8,0.8,0.8
315255.750000,4834319.500000,88.458702,0.8,0.8,0.8
315268.312500,4834329.500000,83.856003,0.8,0.8,0.8
315287.156250,4834395.000000,96.664200,0.8,0.8,0.8
315322.312500,4834290.500000,97.925148,0.8,0.8,0.8
315355.718750,4834394.000000,99.841606,0.8,0.8,0.8
315255.156250,4834319.500000,92.544601,0.8,0.8,0.8
315258.437500,4834448.000000,103.362549,0.8,0.8,0.8
315263.125000,4834321.500000,86.044998,0.8,0.8,0.8
315323.843750,4834285.500000,82.324303,0.8,0.8,0.8
315305.906250,4834322.000000,84.356499,0.8,0.8,0.8
315321.625000,4834349.000000,81.602928,0.8,0.8,0.8
315268.750000,4834323.500000,98.275200,0.8,0.8,0.8
315271.906250,4834324.000000,87.841667,0.8,0.8,0.8
315271.812500,4834324.000000,90.103996,0.8,0.8,0.8
315322.062500,4834291.000000,82.857101,0.8,0.8,0.8
315272.031250,4834324.000000,89.148651,0.8,0.8,0.8
315272.656250,4834324.500000,90.398697,0.8,0.8,0.8
315271.156250,4834324.500000,93.436050,0.8,0.8,0.8
315272.125000,4834324.500000,93.550903,0.8,0.8,0.8
315338.625000,4834353.000000,82.640121,0.8,0.8,0.8
315271.781250,4834324.000000,94.824051,0.8,0.8,0.8
315272.000000,4834324.000000,95.534103,0.8,0.8,0.8
315323.093750,4834286.500000,100.246002,0.8,0.8,0.8
315271.656250,4834324.500000,96.958054,0.8,0.8,0.8
315272.812500,4834324.500000,93.367897,0.8,0.8,0.8
315272.750000,4834452.000000,89.248497,0.8,0.8,0.8
315273.718750,4834325.000000,93.529663,0.8,0.8,0.8
315329.687500,4834335.000000,83.436119,0.8,0.8,0.8
315390.125000,4834371.000000,81.669373,0.8,0.8,0.8
315335.687500,4834348.000000,90.079002,0.8,0.8,0.8
315317.625000,4834290.000000,97.328796,0.8,0.8,0.8
315264.718750,4834344.000000,87.530952,0.8,0.8,0.8
315344.343750,4834299.500000,83.023048,0.8,0.8,0.8
315314.656250,4834333.500000,81.334198,0.8,0.8,0.8
315316.781250,4834321.500000,81.438766,0.8,0.8,0.8
315269.531250,4834345.000000,96.733749,0.8,0.8,0.8
315318.906250,4834376.000000,99.941200,0.8,0.8,0.8
315306.343750,4834341.000000,81.524467,0.8,0.8,0.8
315337.843750,4834349.000000,88.944824,0.8,0.8,0.8
315262.937500,4834343.000000,108.247704,0.8,0.8,0.8
315343.593750,4834300.000000,81.239067,0.8,0.8,0.8
315264.562500,4834344.000000,112.020203,0.8,0.8,0.8
315264.843750,4834344.000000,111.322197,0.8,0.8,0.8
315319.906250,4834344.000000,85.740295,0.8,0.8,0.8
315351.468750,4834351.500000,87.667999,0.8,0.8,0.8
315266.812500,4834377.500000,92.823196,0.8,0.8,0.8
315267.875000,4834444.000000,85.502403,0.8,0.8,0.8
315268.406250,4834444.500000,85.442802,0.8,0.8,0.8
315270.812500,4834445.500000,85.237335,0.8,0.8,0.8
315271.593750,4834445.500000,85.431572,0.8,0.8,0.8
315318.500000,4834290.000000,105.927132,0.8,0.8,0.8
315281.906250,4834349.000000,105.628250,0.8,0.8,0.8
315258.968750,4834448.500000,103.528999,0.8,0.8,0.8
315259.906250,4834448.500000,103.529251,0.8,0.8,0.8
315261.312500,4834449.000000,103.218597,0.8,0.8,0.8
315312.468750,4834335.500000,89.402000,0.8,0.8,0.8
315343.593750,4834320.000000,108.037804,0.8,0.8,0.8
315262.156250,4834449.500000,103.236702,0.8,0.8,0.8
315261.500000,4834449.500000,103.943497,0.8,0.8,0.8
315263.906250,4834449.000000,90.310699,0.8,0.8,0.8
315265.531250,4834450.500000,89.734154,0.8,0.8,0.8
315311.312500,4834324.000000,82.239845,0.8,0.8,0.8
315268.593750,4834451.000000,90.150322,0.8,0.8,0.8
315269.343750,4834444.500000,85.549034,0.8,0.8,0.8
315277.968750,4834336.000000,85.238800,0.8,0.8,0.8
315314.281250,4834317.000000,81.558998,0.8,0.8,0.8
315272.937500,4834452.000000,88.315399,0.8,0.8,0.8
315322.312500,4834290.500000,86.240303,0.8,0.8,0.8
315379.906250,4834371.000000,83.141632,0.8,0.8,0.8
315272.875000,4834452.000000,94.865402,0.8,0.8,0.8
315272.218750,4834452.000000,98.129303,0.8,0.8,0.8
315307.218750,4834328.500000,85.276398,0.8,0.8,0.8
315266.000000,4834450.500000,103.430725,0.8,0.8,0.8
315266.500000,4834451.000000,103.423676,0.8,0.8,0.8
315267.218750,4834451.000000,103.542870,0.8,0.8,0.8
315267.906250,4834451.000000,103.269547,0.8,0.8,0.8
315268.406250,4834451.500000,103.345848,0.8,0.8,0.8
315271.968750,4834452.500000,102.639503,0.8,0.8,0.8
315324.687500,4834282.000000,83.937401,0.8,0.8,0.8
315317.718750,4834299.000000,82.891251,0.8,0.8,0.8
315320.718750,4834296.000000,83.623276,0.8,0.8,0.8
315320.531250,4834296.000000,84.457703,0.8,0.8,0.8
315321.343750,4834296.000000,84.444946,0.8,0.8,0.8
315310.562500,4834288.000000,98.549301,0.8,0.8,0.8
315311.343750,4834288.000000,98.526703,0.8,0.8,0.8
315311.437500,4834323.500000,90.390198,0.8,0.8,0.8
315315.937500,4834289.500000,93.453247,0.8,0.8,0.8
315312.281250,4834288.500000,100.030098,0.8,0.8,0.8
315308.406250,4834289.500000,108.229897,0.8,0.8,0.8
315309.000000,4834290.000000,105.176498,0.8,0.8,0.8
315308.937500,4834290.000000,108.336403,0.8,0.8,0.8
315364.062500,4834400.000000,86.059898,0.8,0.8,0.8
315363.375000,4834345.000000,85.417099,0.8,0.8,0.8
315323.843750,4834285.500000,91.719902,0.8,0.8,0.8
315317.531250,4834287.000000,107.638802,0.8,0.8,0.8
315323.125000,4834286.500000,99.446899,0.8,0.8,0.8
315323.187500,4834286.000000,108.642776,0.8,0.8,0.8
315312.625000,4834359.500000,81.686806,0.8,0.8,0.8
315316.687500,4834289.500000,93.528130,0.8,0.8,0.8
315363.500000,4834351.500000,81.610252,0.8,0.8,0.8
315316.531250,4834290.000000,96.832336,0.8,0.8,0.8
315332.500000,4834342.500000,82.767921,0.8,0.8,0.8
315318.593750,4834291.000000,95.187798,0.8,0.8,0.8
315322.218750,4834291.000000,90.124847,0.8,0.8,0.8
315315.937500,4834351.500000,82.477997,0.8,0.8,0.8
315322.906250,4834288.500000,91.774002,0.8,0.8,0.8
315322.531250,4834290.000000,95.162102,0.8,0.8,0.8
315304.468750,4834333.500000,90.256500,0.8,0.8,0.8
315304.125000,4834333.500000,91.633331,0.8,0.8,0.8
315319.625000,4834290.500000,92.756851,0.8,0.8,0.8
315320.093750,4834290.500000,94.019531,0.8,0.8,0.8
315320.000000,4834290.500000,94.726402,0.8,0.8,0.8
315328.500000,4834340.000000,86.086647,0.8,0.8,0.8
315328.062500,4834342.500000,82.374870,0.8,0.8,0.8
315321.718750,4834290.500000,95.446503,0.8,0.8,0.8
315321.875000,4834290.500000,96.139099,0.8,0.8,0.8
315321.625000,4834290.500000,97.435776,0.8,0.8,0.8
315321.562500,4834290.500000,98.152603,0.8,0.8,0.8
315319.906250,4834384.500000,83.136246,0.8,0.8,0.8
315313.718750,4834289.000000,103.035698,0.8,0.8,0.8
315316.687500,4834289.500000,100.041298,0.8,0.8,0.8
315317.843750,4834290.000000,99.324501,0.8,0.8,0.8
315318.031250,4834289.500000,101.480598,0.8,0.8,0.8
315316.656250,4834289.500000,104.018700,0.8,0.8,0.8
315318.375000,4834289.500000,102.142601,0.8,0.8,0.8
315318.593750,4834290.000000,102.650299,0.8,0.8,0.8
315314.718750,4834289.000000,105.927887,0.8,0.8,0.8
315316.031250,4834289.500000,108.041634,0.8,0.8,0.8
315316.625000,4834289.500000,105.550369,0.8,0.8,0.8
315337.156250,4834310.500000,96.739700,0.8,0.8,0.8
315317.718750,4834290.000000,105.529335,0.8,0.8,0.8
315322.468750,4834288.500000,100.246101,0.8,0.8,0.8
315321.406250,4834290.500000,99.028999,0.8,0.8,0.8
315321.437500,4834290.500000,99.945801,0.8,0.8,0.8
315314.156250,4834386.500000,99.957397,0.8,0.8,0.8
315321.625000,4834290.500000,100.636002,0.8,0.8,0.8
315321.531250,4834290.500000,101.455826,0.8,0.8,0.8
315321.531250,4834290.500000,102.248436,0.8,0.8,0.8
315321.500000,4834290.500000,103.044563,0.8,0.8,0.8
315321.500000,4834290.500000,103.858849,0.8,0.8,0.8
315321.531250,4834290.500000,104.623451,0.8,0.8,0.8
315322.031250,4834291.000000,104.850502,0.8,0.8,0.8
315339.687500,4834350.500000,82.096001,0.8,0.8,0.8
315320.968750,4834291.000000,106.836998,0.8,0.8,0.8
315321.343750,4834290.500000,105.615501,0.8,0.8,0.8
315294.843750,4834390.000000,86.178200,0.8,0.8,0.8
315299.593750,4834324.000000,82.436699,0.8,0.8,0.8
315277.625000,4834325.500000,84.438728,0.8,0.8,0.8
315276.906250,4834331.000000,82.050499,0.8,0.8,0.8
315278.406250,4834325.500000,84.435234,0.8,0.8,0.8
315318.406250,4834300.500000,84.036339,0.8,0.8,0.8
315301.250000,4834336.000000,84.729172,0.8,0.8,0.8
315279.593750,4834344.500000,85.434647,0.8,0.8,0.8
315280.093750,4834351.500000,85.016800,0.8,0.8,0.8
315281.531250,4834348.500000,85.467796,0.8,0.8,0.8
315287.218750,4834347.000000,83.851067,0.8,0.8,0.8
315285.906250,4834350.500000,83.156799,0.8,0.8,0.8
315289.875000,4834329.500000,84.137199,0.8,0.8,0.8
315289.812500,4834329.500000,84.840897,0.8,0.8,0.8
315290.312500,4834329.500000,85.345467,0.8,0.8,0.8
315367.281250,4834366.500000,82.302452,0.8,0.8,0.8
315292.343750,4834330.000000,82.102867,0.8,0.8,0.8
315293.218750,4834330.000000,84.548317,0.8,0.8,0.8
315284.906250,4834350.000000,104.945053,0.8,0.8,0.8
315287.031250,4834395.500000,90.139282,0.8,0.8,0.8
315374.093750,4834351.500000,82.326103,0.8,0.8,0.8
315295.031250,4834331.000000,84.433884,0.8,0.8,0.8
315297.343750,4834330.500000,82.675400,0.8,0.8,0.8
315297.343750,4834330.500000,83.647774,0.8,0.8,0.8
315296.437500,4834331.000000,85.052505,0.8,0.8,0.8
315348.625000,4834391.500000,98.653572,0.8,0.8,0.8
315363.375000,4834380.000000,80.869797,0.8,0.8,0.8
315296.000000,4834335.000000,81.539299,0.8,0.8,0.8
315294.906250,4834337.500000,82.006699,0.8,0.8,0.8
315295.718750,4834337.500000,81.459747,0.8,0.8,0.8
315295.718750,4834338.500000,81.502151,0.8,0.8,0.8
315370.031250,4834313.000000,109.799850,0.8,0.8,0.8
315298.218750,4834335.000000,85.248322,0.8,0.8,0.8
315298.906250,4834335.000000,85.475899,0.8,0.8,0.8
315299.500000,4834335.500000,85.451950,0.8,0.8,0.8
315289.250000,4834340.000000,81.571602,0.8,0.8,0.8
315341.500000,4834367.000000,89.539658,0.8,0.8,0.8
315293.125000,4834341.500000,81.576797,0.8,0.8,0.8
315293.843750,4834340.000000,81.567299,0.8,0.8,0.8
315340.750000,4834399.500000,99.940643,0.8,0.8,0.8
315291.562500,4834342.000000,81.892700,0.8,0.8,0.8
315293.093750,4834342.500000,81.553635,0.8,0.8,0.8
315287.531250,4834398.000000,101.031403,0.8,0.8,0.8
315288.843750,4834351.500000,83.249535,0.8,0.8,0.8
315289.000000,4834351.500000,83.996002,0.8,0.8,0.8
315295.500000,4834341.500000,81.545631,0.8,0.8,0.8
315295.656250,4834340.000000,84.044701,0.8,0.8,0.8
315295.500000,4834344.000000,81.574799,0.8,0.8,0.8
315296.000000,4834344.000000,82.133202,0.8,0.8,0.8
315298.218750,4834341.500000,81.563904,0.8,0.8,0.8
315303.468750,4834332.500000,92.102402,0.8,0.8,0.8
315298.812500,4834342.000000,81.566200,0.8,0.8,0.8
315298.218750,4834343.500000,81.565666,0.8,0.8,0.8
315298.812500,4834345.000000,81.568634,0.8,0.8,0.8
315299.250000,4834344.000000,82.152779,0.8,0.8,0.8
315299.812500,4834342.000000,84.033302,0.8,0.8,0.8
315294.843750,4834351.500000,81.657631,0.8,0.8,0.8
315376.031250,4834393.000000,118.270889,0.8,0.8,0.8
315298.000000,4834346.500000,81.552834,0.8,0.8,0.8
315298.781250,4834348.000000,82.048897,0.8,0.8,0.8
315297.750000,4834351.000000,85.244514,0.8,0.8,0.8
315299.343750,4834349.000000,82.431618,0.8,0.8,0.8
315299.812500,4834350.500000,84.389603,0.8,0.8,0.8
315305.437500,4834333.500000,84.643379,0.8,0.8,0.8
315312.812500,4834312.500000,84.445099,0.8,0.8,0.8
315318.031250,4834304.000000,85.259651,0.8,0.8,0.8
315311.750000,4834315.500000,83.869598,0.8,0.8,0.8
315313.531250,4834318.500000,82.038788,0.8,0.8,0.8
315339.625000,4834345.000000,88.044319,0.8,0.8,0.8
315311.562500,4834316.500000,83.642197,0.8,0.8,0.8
315310.812500,4834318.000000,83.836121,0.8,0.8,0.8
315310.562500,4834319.500000,84.434669,0.8,0.8,0.8
315309.468750,4834323.000000,81.670197,0.8,0.8,0.8
315307.937500,4834324.500000,83.013298,0.8,0.8,0.8
315313.437500,4834320.000000,81.139931,0.8,0.8,0.8
315312.343750,4834323.500000,81.933800,0.8,0.8,0.8
315311.718750,4834324.000000,84.644943,0.8,0.8,0.8
315317.218750,4834304.000000,81.645424,0.8,0.8,0.8
315363.812500,4834327.000000,103.142563,0.8,0.8,0.8
315315.968750,4834312.500000,82.835297,0.8,0.8,0.8
315316.875000,4834309.000000,81.052551,0.8,0.8,0.8
315316.906250,4834309.000000,82.136261,0.8,0.8,0.8
315316.812500,4834309.000000,83.546898,0.8,0.8,0.8
315320.000000,4834312.000000,82.139252,0.8,0.8,0.8
315322.562500,4834312.000000,82.209999,0.8,0.8,0.8
315319.843750,4834310.500000,83.871498,0.8,0.8,0.8
315320.250000,4834311.500000,82.930550,0.8,0.8,0.8
315319.812500,4834311.500000,84.636215,0.8,0.8,0.8
315320.593750,4834311.500000,85.218399,0.8,0.8,0.8
315314.125000,4834318.000000,82.045700,0.8,0.8,0.8
315314.437500,4834317.000000,82.253899,0.8,0.8,0.8
315314.281250,4834317.000000,83.240402,0.8,0.8,0.8
315314.406250,4834317.000000,83.944069,0.8,0.8,0.8
315316.781250,4834322.000000,84.649902,0.8,0.8,0.8
315303.687500,4834331.000000,84.328476,0.8,0.8,0.8
315365.625000,4834327.000000,95.244179,0.8,0.8,0.8
315307.062500,4834328.500000,82.240898,0.8,0.8,0.8
315303.687500,4834327.000000,83.845726,0.8,0.8,0.8
315330.406250,4834342.500000,84.740181,0.8,0.8,0.8
315303.968750,4834328.500000,83.889801,0.8,0.8,0.8
315318.906250,4834382.500000,100.041237,0.8,0.8,0.8
315301.031250,4834333.000000,82.235298,0.8,0.8,0.8
315302.812500,4834333.000000,82.239944,0.8,0.8,0.8
315302.218750,4834333.000000,84.240120,0.8,0.8,0.8
315302.093750,4834334.000000,85.506271,0.8,0.8,0.8
315303.250000,4834338.500000,83.872597,0.8,0.8,0.8
315304.500000,4834335.000000,81.646355,0.8,0.8,0.8
315328.875000,4834341.500000,83.096497,0.8,0.8,0.8
315307.750000,4834328.000000,82.235077,0.8,0.8,0.8
315307.531250,4834326.000000,82.842247,0.8,0.8,0.8
315307.718750,4834329.500000,81.630363,0.8,0.8,0.8
315309.531250,4834330.500000,84.502098,0.8,0.8,0.8
315312.812500,4834327.000000,81.261375,0.8,0.8,0.8
315313.531250,4834328.500000,81.297478,0.8,0.8,0.8
315310.156250,4834328.500000,83.837517,0.8,0.8,0.8
315319.843750,4834410.500000,100.885750,0.8,0.8,0.8
315310.375000,4834328.500000,84.744621,0.8,0.8,0.8
315300.687500,4834357.500000,83.840134,0.8,0.8,0.8
315316.906250,4834339.500000,82.273003,0.8,0.8,0.8
315310.625000,4834329.500000,84.746201,0.8,0.8,0.8
315311.312500,4834329.500000,85.248993,0.8,0.8,0.8
315308.218750,4834333.500000,85.246071,0.8,0.8,0.8
315329.187500,4834341.500000,82.014099,0.8,0.8,0.8
315307.343750,4834335.000000,82.841461,0.8,0.8,0.8
315307.718750,4834335.000000,83.631119,0.8,0.8,0.8
315308.437500,4834335.000000,82.830101,0.8,0.8,0.8
315308.593750,4834335.000000,83.543381,0.8,0.8,0.8
315307.593750,4834335.000000,84.746498,0.8,0.8,0.8
315308.500000,4834335.000000,84.245018,0.8,0.8,0.8
315308.593750,4834335.000000,84.948997,0.8,0.8,0.8
315308.250000,4834333.500000,82.845955,0.8,0.8,0.8
315295.468750,4834374.500000,89.531548,0.8,0.8,0.8
315308.437500,4834338.000000,82.245132,0.8,0.8,0.8
315310.125000,4834336.000000,81.581306,0.8,0.8,0.8
315309.937500,4834336.000000,82.439301,0.8,0.8,0.8
315311.968750,4834332.500000,81.476234,0.8,0.8,0.8
315311.937500,4834333.500000,81.489250,0.8,0.8,0.8
315369.187500,4834413.500000,110.847801,0.8,0.8,0.8
315311.843750,4834338.000000,81.953369,0.8,0.8,0.8
315352.843750,4834345.000000,81.756187,0.8,0.8,0.8
315301.218750,4834342.500000,81.572899,0.8,0.8,0.8
315302.218750,4834345.000000,81.575798,0.8,0.8,0.8
315302.906250,4834344.000000,83.854301,0.8,0.8,0.8
315305.500000,4834340.000000,81.505928,0.8,0.8,0.8
315306.718750,4834344.000000,81.576103,0.8,0.8,0.8
315307.062500,4834344.000000,82.365898,0.8,0.8,0.8
315302.218750,4834346.000000,81.574501,0.8,0.8,0.8
315302.093750,4834351.000000,81.567101,0.8,0.8,0.8
315302.250000,4834349.000000,83.997200,0.8,0.8,0.8
315352.125000,4834321.500000,88.344597,0.8,0.8,0.8
315356.625000,4834324.000000,105.940277,0.8,0.8,0.8
315306.906250,4834347.500000,81.574188,0.8,0.8,0.8
315311.937500,4834408.500000,90.340332,0.8,0.8,0.8
315305.500000,4834373.000000,85.342239,0.8,0.8,0.8
315306.000000,4834350.500000,81.861198,0.8,0.8,0.8
315306.093750,4834351.500000,81.552414,0.8,0.8,0.8
315305.187500,4834350.500000,82.855247,0.8,0.8,0.8
315306.093750,4834350.500000,82.636719,0.8,0.8,0.8
315332.312500,4834407.000000,83.842621,0.8,0.8,0.8
315310.156250,4834340.000000,81.510597,0.8,0.8,0.8
315307.562500,4834345.000000,82.108551,0.8,0.8,0.8
315328.093750,4834344.000000,88.481201,0.8,0.8,0.8
315313.406250,4834338.500000,81.749702,0.8,0.8,0.8
315312.656250,4834342.000000,81.556259,0.8,0.8,0.8
315312.718750,4834345.000000,81.567673,0.8,0.8,0.8
315310.531250,4834344.000000,83.323303,0.8,0.8,0.8
315301.937500,4834419.500000,101.559837,0.8,0.8,0.8
315311.937500,4834344.500000,82.957603,0.8,0.8,0.8
315312.593750,4834343.500000,83.044296,0.8,0.8,0.8
315308.750000,4834346.500000,81.590500,0.8,0.8,0.8
315310.218750,4834348.000000,81.573677,0.8,0.8,0.8
315310.093750,4834346.500000,82.275703,0.8,0.8,0.8
315308.218750,4834349.000000,82.040367,0.8,0.8,0.8
315307.718750,4834351.000000,81.571655,0.8,0.8,0.8
315308.218750,4834351.500000,81.577820,0.8,0.8,0.8
315310.218750,4834349.000000,81.575417,0.8,0.8,0.8
315309.343750,4834349.500000,83.054703,0.8,0.8,0.8
315310.718750,4834346.500000,81.580101,0.8,0.8,0.8
315313.500000,4834348.000000,81.591064,0.8,0.8,0.8
315312.062500,4834349.000000,82.130150,0.8,0.8,0.8
315312.000000,4834350.000000,82.235336,0.8,0.8,0.8
315312.625000,4834350.000000,81.570618,0.8,0.8,0.8
315315.187500,4834327.000000,84.452698,0.8,0.8,0.8
315314.000000,4834329.500000,81.930069,0.8,0.8,0.8
315301.718750,4834409.500000,85.431496,0.8,0.8,0.8
315313.781250,4834329.000000,82.700500,0.8,0.8,0.8
315316.906250,4834329.500000,81.234474,0.8,0.8,0.8
315318.406250,4834331.000000,81.270073,0.8,0.8,0.8
315353.156250,4834349.000000,89.082634,0.8,0.8,0.8
315349.562500,4834349.000000,89.074051,0.8,0.8,0.8
315349.531250,4834348.000000,89.018547,0.8,0.8,0.8
315317.312500,4834336.500000,82.153397,0.8,0.8,0.8
315316.218750,4834338.500000,82.216499,0.8,0.8,0.8
315322.531250,4834329.500000,81.177803,0.8,0.8,0.8
315320.812500,4834333.500000,81.334770,0.8,0.8,0.8
315320.218750,4834338.500000,81.448654,0.8,0.8,0.8
315323.218750,4834332.500000,81.216179,0.8,0.8,0.8
315323.343750,4834333.500000,81.260750,0.8,0.8,0.8
315365.093750,4834327.000000,107.140503,0.8,0.8,0.8
315325.687500,4834333.500000,81.204300,0.8,0.8,0.8
315323.406250,4834336.000000,81.326263,0.8,0.8,0.8
315323.218750,4834338.500000,81.374763,0.8,0.8,0.8
315412.500000,4834371.000000,83.652252,0.8,0.8,0.8
315316.812500,4834340.000000,81.541237,0.8,0.8,0.8
315317.812500,4834341.500000,81.551018,0.8,0.8,0.8
315316.781250,4834343.500000,82.200600,0.8,0.8,0.8
315316.718750,4834345.000000,81.574234,0.8,0.8,0.8
315318.406250,4834344.000000,81.557167,0.8,0.8,0.8
315316.125000,4834346.500000,81.576248,0.8,0.8,0.8
315313.531250,4834345.500000,83.039047,0.8,0.8,0.8
315315.062500,4834350.500000,82.664101,0.8,0.8,0.8
315315.750000,4834348.500000,83.044670,0.8,0.8,0.8
315315.968750,4834349.000000,83.850166,0.8,0.8,0.8
315316.000000,4834349.000000,84.561249,0.8,0.8,0.8
315316.562500,4834346.500000,82.178200,0.8,0.8,0.8
315316.718750,4834348.000000,81.578445,0.8,0.8,0.8
315316.562500,4834351.500000,82.041252,0.8,0.8,0.8
315319.218750,4834349.000000,81.583717,0.8,0.8,0.8
315317.875000,4834351.500000,82.151863,0.8,0.8,0.8
315319.125000,4834351.500000,82.125099,0.8,0.8,0.8
315319.156250,4834348.000000,84.261497,0.8,0.8,0.8
315319.093750,4834350.000000,82.499603,0.8,0.8,0.8
315364.562500,4834429.500000,122.747704,0.8,0.8,0.8
315321.000000,4834340.000000,82.006104,0.8,0.8,0.8
315320.125000,4834341.500000,81.520393,0.8,0.8,0.8
315321.937500,4834340.000000,82.041161,0.8,0.8,0.8
315321.906250,4834341.500000,81.483963,0.8,0.8,0.8
315322.343750,4834340.000000,83.026100,0.8,0.8,0.8
315320.156250,4834342.000000,82.090797,0.8,0.8,0.8
315375.406250,4834371.000000,81.585899,0.8,0.8,0.8
315320.218750,4834343.500000,83.539497,0.8,0.8,0.8
315319.875000,4834344.500000,84.459900,0.8,0.8,0.8
315321.937500,4834344.000000,83.775482,0.8,0.8,0.8
315323.218750,4834341.500000,81.475357,0.8,0.8,0.8
315324.906250,4834340.000000,81.539055,0.8,0.8,0.8
315324.562500,4834340.000000,82.431648,0.8,0.8,0.8
315323.218750,4834342.500000,81.484200,0.8,0.8,0.8
315325.718750,4834342.500000,81.599632,0.8,0.8,0.8
315320.687500,4834346.500000,82.132309,0.8,0.8,0.8
315320.218750,4834349.000000,82.142403,0.8,0.8,0.8
315319.937500,4834351.500000,81.588799,0.8,0.8,0.8
315320.812500,4834350.500000,81.602997,0.8,0.8,0.8
315321.812500,4834351.000000,82.624367,0.8,0.8,0.8
315323.218750,4834346.500000,81.570412,0.8,0.8,0.8
315323.218750,4834348.000000,82.139198,0.8,0.8,0.8
315331.406250,4834407.000000,96.661598,0.8,0.8,0.8
315322.718750,4834349.000000,81.604065,0.8,0.8,0.8
315277.406250,4834427.000000,109.746109,0.8,0.8,0.8
315275.062500,4834325.000000,91.130249,0.8,0.8,0.8
315280.906250,4834320.500000,100.661301,0.8,0.8,0.8
315277.625000,4834325.500000,90.939240,0.8,0.8,0.8
315278.343750,4834325.500000,86.054497,0.8,0.8,0.8
315279.031250,4834326.000000,87.199303,0.8,0.8,0.8
315278.000000,4834326.000000,89.436234,0.8,0.8,0.8
315278.125000,4834326.000000,91.149696,0.8,0.8,0.8
315278.406250,4834326.000000,91.833267,0.8,0.8,0.8
315277.750000,4834325.500000,93.563904,0.8,0.8,0.8
315277.906250,4834326.000000,95.843552,0.8,0.8,0.8
315278.718750,4834326.000000,95.371399,0.8,0.8,0.8
315318.500000,4834372.000000,99.837135,0.8,0.8,0.8
315278.656250,4834333.000000,87.357498,0.8,0.8,0.8
315308.750000,4834334.500000,95.841026,0.8,0.8,0.8
315278.906250,4834338.500000,87.014297,0.8,0.8,0.8
315283.718750,4834328.500000,86.244797,0.8,0.8,0.8
315282.343750,4834327.000000,91.140434,0.8,0.8,0.8
315282.218750,4834327.000000,92.008148,0.8,0.8,0.8
315287.406250,4834328.500000,91.947746,0.8,0.8,0.8
315286.437500,4834328.000000,95.759903,0.8,0.8,0.8
315322.312500,4834351.000000,84.705421,0.8,0.8,0.8
315312.031250,4834322.000000,93.543785,0.8,0.8,0.8
315279.343750,4834344.000000,92.721298,0.8,0.8,0.8
315336.312500,4834351.500000,81.580627,0.8,0.8,0.8
315280.062500,4834346.500000,87.449699,0.8,0.8,0.8
315278.906250,4834348.000000,90.242500,0.8,0.8,0.8
315277.718750,4834348.000000,94.132751,0.8,0.8,0.8
315377.093750,4834394.000000,127.447540,0.8,0.8,0.8
315284.218750,4834349.500000,87.645035,0.8,0.8,0.8
315282.218750,4834349.000000,90.049149,0.8,0.8,0.8
315281.718750,4834349.000000,92.019653,0.8,0.8,0.8
315285.593750,4834350.000000,87.162598,0.8,0.8,0.8
315286.531250,4834350.000000,87.470200,0.8,0.8,0.8
315284.937500,4834350.500000,89.847733,0.8,0.8,0.8
315281.906250,4834349.000000,93.618752,0.8,0.8,0.8
315281.718750,4834349.000000,96.434853,0.8,0.8,0.8
315281.343750,4834349.000000,98.335831,0.8,0.8,0.8
315368.718750,4834328.500000,86.839127,0.8,0.8,0.8
315285.750000,4834350.000000,93.973801,0.8,0.8,0.8
315285.187500,4834350.000000,97.457832,0.8,0.8,0.8
315285.812500,4834350.000000,97.962601,0.8,0.8,0.8
315284.968750,4834350.500000,100.645248,0.8,0.8,0.8
315286.000000,4834350.000000,101.322601,0.8,0.8,0.8
315285.281250,4834350.500000,103.447357,0.8,0.8,0.8
315285.531250,4834350.500000,104.997200,0.8,0.8,0.8
315281.687500,4834349.000000,109.652046,0.8,0.8,0.8
315285.156250,4834350.000000,108.959801,0.8,0.8,0.8
315285.656250,4834350.500000,108.922798,0.8,0.8,0.8
315286.593750,4834350.500000,108.923897,0.8,0.8,0.8
315288.406250,4834328.500000,90.862450,0.8,0.8,0.8
315289.531250,4834329.500000,85.640678,0.8,0.8,0.8
315290.750000,4834329.500000,86.428101,0.8,0.8,0.8
315289.593750,4834329.500000,88.750763,0.8,0.8,0.8
315290.343750,4834329.500000,88.734596,0.8,0.8,0.8
315290.125000,4834329.500000,87.836853,0.8,0.8,0.8
315289.531250,4834329.500000,90.534660,0.8,0.8,0.8
315290.125000,4834329.500000,91.741180,0.8,0.8,0.8
315292.250000,4834330.000000,87.736000,0.8,0.8,0.8
315317.843750,4834305.000000,90.224350,0.8,0.8,0.8
315292.031250,4834330.000000,91.968170,0.8,0.8,0.8
315289.531250,4834329.500000,92.644722,0.8,0.8,0.8
315290.218750,4834329.500000,92.454002,0.8,0.8,0.8
315290.125000,4834329.500000,93.343338,0.8,0.8,0.8
315289.750000,4834329.500000,94.736053,0.8,0.8,0.8
315289.812500,4834329.500000,95.455475,0.8,0.8,0.8
315290.718750,4834329.500000,95.835274,0.8,0.8,0.8
315296.312500,4834331.000000,85.834549,0.8,0.8,0.8
315297.281250,4834331.000000,85.943642,0.8,0.8,0.8
315446.250000,4834378.500000,92.945396,0.8,0.8,0.8
315374.906250,4834357.000000,81.573082,0.8,0.8,0.8
315295.468750,4834330.500000,91.044769,0.8,0.8,0.8
315296.406250,4834331.000000,89.842072,0.8,0.8,0.8
315297.218750,4834331.000000,89.254349,0.8,0.8,0.8
315297.218750,4834331.000000,90.036552,0.8,0.8,0.8
315296.312500,4834331.000000,90.639305,0.8,0.8,0.8
315337.281250,4834312.500000,94.826279,0.8,0.8,0.8
315296.812500,4834331.000000,91.142242,0.8,0.8,0.8
315297.625000,4834331.000000,87.860298,0.8,0.8,0.8
315299.812500,4834331.500000,90.251282,0.8,0.8,0.8
315295.125000,4834330.000000,92.741119,0.8,0.8,0.8
315296.343750,4834331.000000,94.067398,0.8,0.8,0.8
315337.250000,4834312.500000,91.233902,0.8,0.8,0.8
315296.312500,4834331.000000,94.843399,0.8,0.8,0.8
315297.250000,4834331.000000,94.132202,0.8,0.8,0.8
315297.218750,4834331.000000,94.837189,0.8,0.8,0.8
315295.781250,4834330.500000,95.342926,0.8,0.8,0.8
315297.812500,4834330.500000,92.844315,0.8,0.8,0.8
315297.718750,4834330.500000,94.433319,0.8,0.8,0.8
315300.218750,4834332.500000,91.952286,0.8,0.8,0.8
315356.875000,4834324.000000,92.534683,0.8,0.8,0.8
315300.312500,4834332.500000,95.829018,0.8,0.8,0.8
315293.000000,4834344.000000,97.449883,0.8,0.8,0.8
315290.625000,4834348.000000,86.569801,0.8,0.8,0.8
315288.906250,4834351.000000,86.173897,0.8,0.8,0.8
315288.875000,4834351.500000,89.440468,0.8,0.8,0.8
315301.343750,4834356.500000,90.139931,0.8,0.8,0.8
315288.781250,4834351.500000,92.487999,0.8,0.8,0.8
315288.843750,4834351.500000,98.133003,0.8,0.8,0.8
315322.687500,4834395.500000,99.385635,0.8,0.8,0.8
315299.625000,4834350.500000,87.232903,0.8,0.8,0.8
315300.531250,4834350.500000,90.648964,0.8,0.8,0.8
315296.593750,4834349.000000,93.566399,0.8,0.8,0.8
315300.125000,4834350.500000,92.728233,0.8,0.8,0.8
315289.000000,4834351.500000,98.834236,0.8,0.8,0.8
315288.812500,4834351.500000,99.637802,0.8,0.8,0.8
315288.812500,4834351.500000,100.440697,0.8,0.8,0.8
315341.437500,4834341.000000,82.173103,0.8,0.8,0.8
315288.718750,4834351.500000,102.436920,0.8,0.8,0.8
315288.718750,4834351.500000,105.641930,0.8,0.8,0.8
315288.718750,4834351.500000,108.344551,0.8,0.8,0.8
315339.843750,4834369.500000,95.190804,0.8,0.8,0.8
315285.625000,4834350.500000,112.066269,0.8,0.8,0.8
315286.562500,4834350.500000,113.225151,0.8,0.8,0.8
315305.437500,4834324.000000,88.963898,0.8,0.8,0.8
315310.843750,4834318.000000,86.955597,0.8,0.8,0.8
315309.718750,4834322.000000,87.044991,0.8,0.8,0.8
315311.218750,4834399.500000,95.249542,0.8,0.8,0.8
315350.781250,4834404.500000,102.340790,0.8,0.8,0.8
315312.281250,4834320.500000,88.409203,0.8,0.8,0.8
315312.625000,4834320.000000,90.045448,0.8,0.8,0.8
315312.343750,4834320.500000,91.794800,0.8,0.8,0.8
315312.031250,4834322.000000,89.143761,0.8,0.8,0.8
315311.812500,4834324.000000,87.342247,0.8,0.8,0.8
315311.437500,4834323.500000,85.904602,0.8,0.8,0.8
315311.812500,4834324.000000,90.736404,0.8,0.8,0.8
315301.218750,4834332.000000,94.237488,0.8,0.8,0.8
315312.406250,4834322.000000,95.843803,0.8,0.8,0.8
315310.875000,4834324.500000,93.539024,0.8,0.8,0.8
315311.000000,4834325.000000,92.066002,0.8,0.8,0.8
315311.687500,4834323.500000,95.237747,0.8,0.8,0.8
315312.375000,4834323.500000,95.034470,0.8,0.8,0.8
315374.593750,4834355.500000,82.528297,0.8,0.8,0.8
315373.156250,4834357.000000,82.446602,0.8,0.8,0.8
315317.781250,4834304.500000,85.741447,0.8,0.8,0.8
315318.562500,4834304.000000,86.227303,0.8,0.8,0.8
315318.187500,4834305.000000,86.119202,0.8,0.8,0.8
