x,y,z,r,g,b
315394,4.83438e+006,93.485,0.8,0.8,0.8
315337,4.83431e+006,106.849,0.8,0.8,0.8
315320,4.83436e+006,91.542,0.8,0.8,0.8
315289,4.83436e+006,86.1665,0.8,0.8,0.8
315276,4.83435e+006,99.5447,0.8,0.8,0.8
315305,4.83438e+006,82.1061,0.8,0.8,0.8
315334,4.83436e+006,82.9897,0.8,0.8,0.8
315348,4.83437e+006,81.7,0.8,0.8,0.8
315316,4.83431e+006,94.7056,0.8,0.8,0.8
315365,4.83438e+006,98.3851,0.8,0.8,0.8
315307,4.83434e+006,84.0222,0.8,0.8,0.8
315309,4.83441e+006,90.3287,0.8,0.8,0.8
315342,4.83437e+006,84.5368,0.8,0.8,0.8
315284,4.8344e+006,96.4856,0.8,0.8,0.8
315360,4.83437e+006,92.2473,0.8,0.8,0.8
315286,4.83443e+006,82.9537,0.8,0.8,0.8
315323,4.83429e+006,82.7621,0.8,0.8,0.8
315376,4.83438e+006,81.6593,0.8,0.8,0.8
315368,4.83436e+006,81.4421,0.8,0.8,0.8
315303,4.83441e+006,88.7917,0.8,0.8,0.8
315355,4.83432e+006,98.348,0.8,0.8,0.8
315305,4.83441e+006,100.523,0.8,0.8,0.8
315298,4.83435e+006,100.345,0.8,0.8,0.8
315316,4.83439e+006,102.106,0.8,0.8,0.8
315345,4.83435e+006,83.1655,0.8,0.8,0.8
315370,4.83441e+006,109.128,0.8,0.8,0.8
315433,4.83439e+006,81.8796,0.8,0.8,0.8
315373,4.83438e+006,83.5988,0.8,0.8,0.8
315341,4.83439e+006,99.5361,0.8,0.8,0.8
315305,4.83441e+006,94.3378,0.8,0.8,0.8
315330,4.83433e+006,97.5281,0.8,0.8,0.8
315368,4.83437e+006,88.5318,0.8,0.8,0.8
315369,4.83441e+006,103.248,0.8,0.8,0.8
315356,4.83437e+006,99.1281,0.8,0.8,0.8
315311,4.83439e+006,95.0936,0.8,0.8,0.8
315352,4.83435e+006,83.535,0.8,0.8,0.8
315316,4.83437e+006,87.4571,0.8,0.8,0.8
315432,4.83439e+006,85.6097,0.8,0.8,0.8
315296,4.83436e+006,86.1393,0.8,0.8,0.8
315297,4.83435e+006,83.1702,0.8,0.8,0.8
315365,4.83435e+006,86.6726,0.8,0.8,0.8
315348,4.8344e+006,101.576,0.8,0.8,0.8
315282,4.83441e+006,88.3404,0.8,0.8,0.8
315374,4.8344e+006,125.263,0.8,0.8,0.8
315348,4.83437e+006,87.9383,0.8,0.8,0.8
315386,4.83438e+006,81.655,0.8,0.8,0.8
315338,4.83437e+006,97.5412,0.8,0.8,0.8
315279,4.83445e+006,90.3355,0.8,0.8,0.8
315316,4.8344e+006,107.416,0.8,0.8,0.8
315344,4.83435e+006,83.365,0.8,0.8,0.8
315309,4.83433e+006,91.5429,0.8,0.8,0.8
315294,4.83438e+006,82.4241,0.8,0.8,0.8
315376,4.8344e+006,127.434,0.8,0.8,0.8
315322,4.83434e+006,85.6829,0.8,0.8,0.8
315301,4.83442e+006,100.283,0.8,0.8,0.8
315366,4.83432e+006,95.1538,0.8,0.8,0.8
315344,4.83438e+006,101.119,0.8,0.8,0.8
315376,4.83439e+006,86.9146,0.8,0.8,0.8
315298,4.83437e+006,102.006,0.8,0.8,0.8
315432,4.8344e+006,105.664,0.8,0.8,0.8
315304,4.83442e+006,94.3493,0.8,0.8,0.8
315371,4.83441e+006,127.492,0.8,0.8,0.8
315338,4.8344e+006,99.556,0.8,0.8,0.8
315289,4.83439e+006,99.1378,0.8,0.8,0.8
315317,4.83438e+006,91.7815,0.8,0.8,0.8
315289,4.83439e+006,85.1441,0.8,0.8,0.8
315280,4.83442e+006,97.5526,0.8,0.8,0.8
315300,4.83443e+006,92.7407,0.8,0.8,0.8
315314,4.83436e+006,81.557,0.8,0.8,0.8
315329,4.83441e+006,90.3323,0.8,0.8,0.8
315298,4.83439e+006,84.365,0.8,0.8,0.8
315347,4.83438e+006,98.7241,0.8,0.8,0.8
315338,4.83437e+006,93.9418,0.8,0.8,0.8
315338,4.83436e+006,81.9944,0.8,0.8,0.8
315297,4.83442e+006,82.9261,0.8,0.8,0.8
315358,4.83438e+006,90.7873,0.8,0.8,0.8
315339,4.83432e+006,84.5171,0.8,0.8,0.8
315326,4.8344e+006,100.262,0.8,0.8,0.8
315320,4.83439e+006,98.7424,0.8,0.8,0.8
315330,4.83434e+006,88.2746,0.8,0.8,0.8
315348,4.83438e+006,101.101,0.8,0.8,0.8
315289,4.83433e+006,95.56,0.8,0.8,0.8
315326,4.83434e+006,84.4572,0.8,0.8,0.8
315313,4.83431e+006,83.1375,0.8,0.8,0.8
315328,4.83436e+006,89.9412,0.8,0.8,0.8
315394,4.83437e+006,81.667,0.8,0.8,0.8
315310,4.83435e+006,81.5832,0.8,0.8,0.8
315356,4.83437e+006,90.879,0.8,0.8,0.8
315369,4.83442e+006,87.1554,0.8,0.8,0.8
315298,4.83439e+006,82.3232,0.8,0.8,0.8
315362,4.83439e+006,102.033,0.8,0.8,0.8
315299,4.83441e+006,82.862,0.8,0.8,0.8
315326,4.83436e+006,101.486,0.8,0.8,0.8
315383,4.83438e+006,90.3546,0.8,0.8,0.8
315357,4.83438e+006,85.5909,0.8,0.8,0.8
315313,4.83437e+006,81.6665,0.8,0.8,0.8
315325,4.83428e+006,95.205,0.8,0.8,0.8
315290,4.83433e+006,92.2982,0.8,0.8,0.8
315324,4.83429e+006,90.5175,0.8,0.8,0.8
315377,4.83435e+006,81.8942,0.8,0.8,0.8
315371,4.83438e+006,82.7457,0.8,0.8,0.8
315317,4.83438e+006,93.9255,0.8,0.8,0.8
315343,4.8344e+006,102.006,0.8,0.8,0.8
315335,4.83439e+006,98.7269,0.8,0.8,0.8
315421,4.8344e+006,113.935,0.8,0.8,0.8
315313,4.83434e+006,81.5477,0.8,0.8,0.8
315320,4.83435e+006,84.2805,0.8,0.8,0.8
315367,4.83437e+006,88.3806,0.8,0.8,0.8
315323,4.83429e+006,98.0819,0.8,0.8,0.8
315295,4.83438e+006,98.7406,0.8,0.8,0.8
315322,4.83436e+006,101.64,0.8,0.8,0.8
315353,4.83437e+006,88.383,0.8,0.8,0.8
315288,4.83433e+006,89.2826,0.8,0.8,0.8
315348,4.83438e+006,102.018,0.8,0.8,0.8
315368,4.83439e+006,86.8342,0.8,0.8,0.8
315274,4.83445e+006,83.5741,0.8,0.8,0.8
315362,4.83437e+006,81.5076,0.8,0.8,0.8
315325,4.83441e+006,102.387,0.8,0.8,0.8
315370,4.83437e+006,81.9176,0.8,0.8,0.8
315268,4.83445e+006,103.992,0.8,0.8,0.8
315376,4.83438e+006,86.8443,0.8,0.8,0.8
315351,4.83438e+006,88.291,0.8,0.8,0.8
315308,4.83432e+006,83.5018,0.8,0.8,0.8
315308,4.83441e+006,124.313,0.8,0.8,0.8
315387,4.83438e+006,90.7936,0.8,0.8,0.8
315342,4.83432e+006,106.752,0.8,0.8,0.8
315305,4.83436e+006,84.2951,0.8,0.8,0.8
315278,4.83442e+006,84.2925,0.8,0.8,0.8
315295,4.83437e+006,84.2291,0.8,0.8,0.8
315366,4.83437e+006,89.98,0.8,0.8,0.8
315264,4.83445e+006,89.6627,0.8,0.8,0.8
315298,4.83437e+006,83.5398,0.8,0.8,0.8
315353,4.83435e+006,91.4343,0.8,0.8,0.8
315348,4.83432e+006,97.943,0.8,0.8,0.8
315351,4.83435e+006,84.521,0.8,0.8,0.8
315399,4.83438e+006,105.868,0.8,0.8,0.8
315416,4.83439e+006,93.2878,0.8,0.8,0.8
315381,4.83438e+006,89.1413,0.8,0.8,0.8
315356,4.83437e+006,81.6313,0.8,0.8,0.8
315369,4.83436e+006,90.3689,0.8,0.8,0.8
315376,4.83437e+006,81.9784,0.8,0.8,0.8
315366,4.83436e+006,81.5622,0.8,0.8,0.8
315339,4.83435e+006,90.2574,0.8,0.8,0.8
315381,4.83437e+006,81.9837,0.8,0.8,0.8
315372,4.83436e+006,84.7391,0.8,0.8,0.8
315367,4.83437e+006,89.4434,0.8,0.8,0.8
315282,4.83441e+006,105.139,0.8,0.8,0.8
315386,4.83436e+006,81.4749,0.8,0.8,0.8
315338,4.83435e+006,84.673,0.8,0.8,0.8
315364,4.83436e+006,88.4011,0.8,0.8,0.8
315270,4.83434e+006,91.9752,0.8,0.8,0.8
315314,4.83432e+006,91.6371,0.8,0.8,0.8
315314,4.83441e+006,89.9249,0.8,0.8,0.8
315295,4.8344e+006,82.3129,0.8,0.8,0.8
315359,4.83444e+006,111.782,0.8,0.8,0.8
315362,4.83434e+006,86.8062,0.8,0.8,0.8
315324,4.83436e+006,96.3419,0.8,0.8,0.8
315317,4.83437e+006,87.8774,0.8,0.8,0.8
315366,4.83438e+006,84.1986,0.8,0.8,0.8
315396,4.83439e+006,98.0557,0.8,0.8,0.8
315301,4.83436e+006,102.311,0.8,0.8,0.8
315377,4.83438e+006,84.9824,0.8,0.8,0.8
315309,4.83441e+006,115.539,0.8,0.8,0.8
315369,4.83442e+006,99.4267,0.8,0.8,0.8
315282,4.83441e+006,97.5551,0.8,0.8,0.8
315378,4.83439e+006,100.009,0.8,0.8,0.8
315324,4.8344e+006,100.516,0.8,0.8,0.8
315376,4.83436e+006,77.6431,0.8,0.8,0.8
315320,4.83437e+006,95.0928,0.8,0.8,0.8
315442,4.83437e+006,111.706,0.8,0.8,0.8
315353,4.83438e+006,84.7371,0.8,0.8,0.8
315372,4.83438e+006,97.2733,0.8,0.8,0.8
315417,4.8344e+006,84.2536,0.8,0.8,0.8
315366,4.83436e+006,90.6668,0.8,0.8,0.8
315300,4.83438e+006,87.0229,0.8,0.8,0.8
315315,4.83431e+006,86.3651,0.8,0.8,0.8
315287,4.83446e+006,88.4725,0.8,0.8,0.8
315276,4.83445e+006,102.272,0.8,0.8,0.8
315333,4.83431e+006,85.0664,0.8,0.8,0.8
315357,4.83435e+006,85.0185,0.8,0.8,0.8
315294,4.83438e+006,89.1418,0.8,0.8,0.8
315303,4.83433e+006,94.7365,0.8,0.8,0.8
315342,4.83435e+006,89.4958,0.8,0.8,0.8
315398,4.83432e+006,88.7952,0.8,0.8,0.8
315350,4.83432e+006,113.462,0.8,0.8,0.8
315315,4.8344e+006,85.6922,0.8,0.8,0.8
315430,4.83439e+006,89.9748,0.8,0.8,0.8
315318,4.83439e+006,98.7773,0.8,0.8,0.8
315276,4.83442e+006,93.1275,0.8,0.8,0.8
315323,4.83441e+006,123.134,0.8,0.8,0.8
315297,4.83437e+006,103.901,0.8,0.8,0.8
315266,4.83434e+006,90.2585,0.8,0.8,0.8
315387,4.83436e+006,83.2726,0.8,0.8,0.8
315321,4.83431e+006,80.517,0.8,0.8,0.8
315323,4.83429e+006,94.8237,0.8,0.8,0.8
315368,4.83436e+006,82.0575,0.8,0.8,0.8
315332,4.83433e+006,82.7521,0.8,0.8,0.8
315328,4.83437e+006,98.8114,0.8,0.8,0.8
315357,4.83438e+006,100.341,0.8,0.8,0.8
315429,4.83437e+006,81.662,0.8,0.8,0.8
315312,4.83439e+006,93.9463,0.8,0.8,0.8
315298,4.83435e+006,87.5419,0.8,0.8,0.8
315395,4.83438e+006,84.3916,0.8,0.8,0.8
315342,4.83438e+006,101.803,0.8,0.8,0.8
315285,4.83433e+006,93.9737,0.8,0.8,0.8
315352,4.83436e+006,81.6078,0.8,0.8,0.8
315343,4.83434e+006,86.7404,0.8,0.8,0.8
315268,4.83445e+006,102.235,0.8,0.8,0.8
315293,4.83439e+006,88.7343,0.8,0.8,0.8
315291,4.83439e+006,103.8,0.8,0.8,0.8
315373,4.83435e+006,82.5213,0.8,0.8,0.8
315352,4.83436e+006,90.0257,0.8,0.8,0.8
315425,4.83437e+006,92.6842,0.8,0.8,0.8
315379,4.83439e+006,109.216,0.8,0.8,0.8
315278,4.83434e+006,82.8967,0.8,0.8,0.8
315291,4.8344e+006,83.5144,0.8,0.8,0.8
315267,4.83445e+006,87.8956,0.8,0.8,0.8
315306,4.83434e+006,81.6258,0.8,0.8,0.8
315314,4.83431e+006,93.0443,0.8,0.8,0.8
315280,4.83442e+006,99.9379,0.8,0.8,0.8
315295,4.83438e+006,96.7483,0.8,0.8,0.8
315370,4.8344e+006,106.163,0.8,0.8,0.8
315298,4.83435e+006,85.3704,0.8,0.8,0.8
315337,4.83431e+006,97.948,0.8,0.8,0.8
315383,4.83437e+006,84.2009,0.8,0.8,0.8
315369,4.83436e+006,82.0512,0.8,0.8,0.8
315365,4.83437e+006,85.939,0.8,0.8,0.8
315289,4.83439e+006,83.2792,0.8,0.8,0.8
315320,4.83436e+006,90.7422,0.8,0.8,0.8
315304,4.83435e+006,96.0287,0.8,0.8,0.8
315319,4.8343e+006,81.5511,0.8,0.8,0.8
315378,4.83438e+006,85.9842,0.8,0.8,0.8
315301,4.83442e+006,90.7718,0.8,0.8,0.8
315333,4.8344e+006,101.272,0.8,0.8,0.8
315295,4.83434e+006,87.5706,0.8,0.8,0.8
315344,4.83435e+006,83.7354,0.8,0.8,0.8
315336,4.83434e+006,96.7419,0.8,0.8,0.8
315356,4.83439e+006,99.1021,0.8,0.8,0.8
315326,4.83437e+006,83.0361,0.8,0.8,0.8
315342,4.8344e+006,100.361,0.8,0.8,0.8
315318,4.83436e+006,90.3963,0.8,0.8,0.8
315300,4.83436e+006,98.343,0.8,0.8,0.8
315281,4.83446e+006,91.421,0.8,0.8,0.8
315323,4.83439e+006,86.3943,0.8,0.8,0.8
315348,4.83436e+006,81.6248,0.8,0.8,0.8
315377,4.83436e+006,92.8835,0.8,0.8,0.8
315339,4.83434e+006,82.3838,0.8,0.8,0.8
315361,4.83435e+006,81.5728,0.8,0.8,0.8
315308,4.83433e+006,82.4498,0.8,0.8,0.8
315375,4.83436e+006,81.4249,0.8,0.8,0.8
315301,4.83437e+006,101.942,0.8,0.8,0.8
315375,4.83436e+006,81.5208,0.8,0.8,0.8
315329,4.83436e+006,87.5388,0.8,0.8,0.8
315352,4.83438e+006,98.7136,0.8,0.8,0.8
315384,4.83438e+006,105.915,0.8,0.8,0.8
315399,4.83437e+006,81.5741,0.8,0.8,0.8
315319,4.83438e+006,101.179,0.8,0.8,0.8
315356,4.83439e+006,109.131,0.8,0.8,0.8
315324,4.83437e+006,83.1122,0.8,0.8,0.8
315311,4.83435e+006,88.5875,0.8,0.8,0.8
315366,4.83438e+006,83.7492,0.8,0.8,0.8
315360,4.83434e+006,85.1333,0.8,0.8,0.8
315400,4.83439e+006,103.149,0.8,0.8,0.8
315378,4.83436e+006,89.945,0.8,0.8,0.8
315367,4.83433e+006,106.933,0.8,0.8,0.8
315308,4.83438e+006,101.193,0.8,0.8,0.8
315315,4.83438e+006,92.9337,0.8,0.8,0.8
315258,4.83445e+006,103.933,0.8,0.8,0.8
315321,4.83436e+006,82.7202,0.8,0.8,0.8
315335,4.83443e+006,107.14,0.8,0.8,0.8
315379,4.83438e+006,93.0402,0.8,0.8,0.8
315356,4.83437e+006,81.4955,0.8,0.8,0.8
315336,4.83437e+006,98.7195,0.8,0.8,0.8
315360,4.83433e+006,92.3225,0.8,0.8,0.8
315338,4.83438e+006,99.5553,0.8,0.8,0.8
315340,4.83433e+006,101.114,0.8,0.8,0.8
315380,4.83436e+006,87.134,0.8,0.8,0.8
315356,4.83439e+006,100.342,0.8,0.8,0.8
315317,4.8344e+006,102.071,0.8,0.8,0.8
315333,4.83434e+006,84.015,0.8,0.8,0.8
315338,4.83431e+006,107.366,0.8,0.8,0.8
315360,4.83435e+006,81.5559,0.8,0.8,0.8
315286,4.83439e+006,86.3399,0.8,0.8,0.8
315316,4.83437e+006,81.9982,0.8,0.8,0.8
315330,4.83441e+006,101.565,0.8,0.8,0.8
315329,4.83434e+006,94.3041,0.8,0.8,0.8
315359,4.83437e+006,103.231,0.8,0.8,0.8
315378,4.83436e+006,83.4063,0.8,0.8,0.8
315346,4.83433e+006,94.7499,0.8,0.8,0.8
315418,4.8344e+006,112.459,0.8,0.8,0.8
315285,4.83433e+006,83.8142,0.8,0.8,0.8
315296,4.83435e+006,92.3498,0.8,0.8,0.8
315370,4.83445e+006,90.0411,0.8,0.8,0.8
315330,4.83434e+006,84.9099,0.8,0.8,0.8
315339,4.83431e+006,88.3311,0.8,0.8,0.8
315309,4.8344e+006,94.3384,0.8,0.8,0.8
315342,4.83438e+006,88.8921,0.8,0.8,0.8
315303,4.83434e+006,87.1476,0.8,0.8,0.8
315397,4.83438e+006,86.7462,0.8,0.8,0.8
315419,4.8344e+006,103.464,0.8,0.8,0.8
315401,4.83437e+006,82.5054,0.8,0.8,0.8
315320,4.83438e+006,98.8058,0.8,0.8,0.8
315297,4.83437e+006,104.339,0.8,0.8,0.8
315318,4.8344e+006,112.631,0.8,0.8,0.8
315306,4.83442e+006,108.085,0.8,0.8,0.8
315277,4.83443e+006,108.343,0.8,0.8,0.8
315379,4.83437e+006,90.2838,0.8,0.8,0.8
315329,4.83434e+006,99.8419,0.8,0.8,0.8
315297,4.83443e+006,85.5386,0.8,0.8,0.8
315323,4.8344e+006,99.0909,0.8,0.8,0.8
315306,4.83436e+006,91.5368,0.8,0.8,0.8
315306,4.83437e+006,85.6681,0.8,0.8,0.8
315392,4.83439e+006,119.945,0.8,0.8,0.8
315309,4.83439e+006,82.2406,0.8,0.8,0.8
315291,4.83439e+006,86.8872,0.8,0.8,0.8
315317,4.83441e+006,82.316,0.8,0.8,0.8
315331,4.83437e+006,87.7657,0.8,0.8,0.8
315363,4.83436e+006,86.9692,0.8,0.8,0.8
315336,4.83443e+006,113.703,0.8,0.8,0.8
315266,4.83432e+006,96.2178,0.8,0.8,0.8
315325,4.83438e+006,102.029,0.8,0.8,0.8
315315,4.83438e+006,101.144,0.8,0.8,0.8
315328,4.83438e+006,98.7145,0.8,0.8,0.8
315348,4.83435e+006,84.7479,0.8,0.8,0.8
315366,4.83432e+006,110.505,0.8,0.8,0.8
315337,4.83431e+006,103.535,0.8,0.8,0.8
315336,4.83437e+006,85.9387,0.8,0.8,0.8
315350,4.83432e+006,96.4574,0.8,0.8,0.8
315337,4.83431e+006,94.7404,0.8,0.8,0.8
315339,4.83441e+006,106.553,0.8,0.8,0.8
315294,4.83442e+006,82.6474,0.8,0.8,0.8
315309,4.83441e+006,113.493,0.8,0.8,0.8
315337,4.83431e+006,105.145,0.8,0.8,0.8
315358,4.83436e+006,81.6433,0.8,0.8,0.8
315295,4.83439e+006,86.8978,0.8,0.8,0.8
315358,4.83438e+006,87.2042,0.8,0.8,0.8
315310,4.8344e+006,100.157,0.8,0.8,0.8
315320,4.8344e+006,94.6801,0.8,0.8,0.8
315292,4.83438e+006,100.33,0.8,0.8,0.8
315346,4.83431e+006,112.896,0.8,0.8,0.8
315393,4.83437e+006,82.6618,0.8,0.8,0.8
315347,4.83437e+006,98.7173,0.8,0.8,0.8
315374,4.83439e+006,80.6784,0.8,0.8,0.8
315368,4.83437e+006,91.0071,0.8,0.8,0.8
315284,4.83445e+006,86.0913,0.8,0.8,0.8
315325,4.83438e+006,101.138,0.8,0.8,0.8
315354,4.83436e+006,85.5025,0.8,0.8,0.8
315286,4.8344e+006,99.1277,0.8,0.8,0.8
315343,4.83437e+006,99.622,0.8,0.8,0.8
315432,4.83437e+006,89.9277,0.8,0.8,0.8
315366,4.83439e+006,85.2131,0.8,0.8,0.8
315350,4.83438e+006,84.1592,0.8,0.8,0.8
315370,4.83434e+006,88.6683,0.8,0.8,0.8
315299,4.83443e+006,103.242,0.8,0.8,0.8
315416,4.83439e+006,102.568,0.8,0.8,0.8
315325,4.83437e+006,101.587,0.8,0.8,0.8
315329,4.83435e+006,89.0227,0.8,0.8,0.8
315323,4.83436e+006,99.1229,0.8,0.8,0.8
315334,4.83435e+006,86.0966,0.8,0.8,0.8
315331,4.83436e+006,92.1111,0.8,0.8,0.8
315299,4.83432e+006,82.4222,0.8,0.8,0.8
315275,4.83435e+006,93.9138,0.8,0.8,0.8
315296,4.83438e+006,82.3618,0.8,0.8,0.8
315341,4.83439e+006,99.8448,0.8,0.8,0.8
315291,4.83435e+006,103.064,0.8,0.8,0.8
315375,4.83437e+006,81.5705,0.8,0.8,0.8
315311,4.8344e+006,112.508,0.8,0.8,0.8
315284,4.83441e+006,104.737,0.8,0.8,0.8
315352,4.83432e+006,95.1351,0.8,0.8,0.8
315371,4.83437e+006,91.6115,0.8,0.8,0.8
315324,4.83436e+006,84.3397,0.8,0.8,0.8
315282,4.83435e+006,90.3291,0.8,0.8,0.8
315292,4.83432e+006,82.7792,0.8,0.8,0.8
315418,4.83439e+006,85.5282,0.8,0.8,0.8
315317,4.83436e+006,81.5437,0.8,0.8,0.8
315333,4.83441e+006,101.758,0.8,0.8,0.8
315344,4.83439e+006,101.561,0.8,0.8,0.8
315290,4.83439e+006,98.8205,0.8,0.8,0.8
315331,4.83436e+006,81.5185,0.8,0.8,0.8
315337,4.83431e+006,91.9494,0.8,0.8,0.8
315324,4.83436e+006,81.4327,0.8,0.8,0.8
315360,4.83439e+006,100.304,0.8,0.8,0.8
315291,4.83434e+006,81.5603,0.8,0.8,0.8
315423,4.83439e+006,82.0171,0.8,0.8,0.8
315278,4.83442e+006,93.9388,0.8,0.8,0.8
315420,4.8344e+006,121.529,0.8,0.8,0.8
315371,4.83437e+006,86.218,0.8,0.8,0.8
315351,4.83437e+006,94.8498,0.8,0.8,0.8
315363,4.83438e+006,93.3359,0.8,0.8,0.8
315362,4.83433e+006,99.543,0.8,0.8,0.8
315298,4.8344e+006,85.0535,0.8,0.8,0.8
315304,4.83439e+006,82.7937,0.8,0.8,0.8
315335,4.83433e+006,89.6561,0.8,0.8,0.8
315371,4.83436e+006,82.7343,0.8,0.8,0.8
315280,4.83441e+006,109.803,0.8,0.8,0.8
315319,4.83429e+006,107.611,0.8,0.8,0.8
315336,4.8344e+006,98.7261,0.8,0.8,0.8
315324,4.83432e+006,82.3827,0.8,0.8,0.8
315288,4.83439e+006,85.9399,0.8,0.8,0.8
315300,4.83443e+006,100.352,0.8,0.8,0.8
315349,4.83439e+006,98.6516,0.8,0.8,0.8
315305,4.83441e+006,89.5312,0.8,0.8,0.8
315348,4.83437e+006,87.3561,0.8,0.8,0.8
315341,4.83437e+006,90.5273,0.8,0.8,0.8
315354,4.83432e+006,99.149,0.8,0.8,0.8
315321,4.83435e+006,81.6033,0.8,0.8,0.8
315357,4.83439e+006,99.8888,0.8,0.8,0.8
315303,4.8344e+006,82.2459,0.8,0.8,0.8
315396,4.83438e+006,83.1334,0.8,0.8,0.8
315324,4.83438e+006,98.8247,0.8,0.8,0.8
315353,4.83439e+006,99.3469,0.8,0.8,0.8
315364,4.83439e+006,99.1294,0.8,0.8,0.8
315325,4.83434e+006,81.2477,0.8,0.8,0.8
315317,4.83438e+006,98.768,0.8,0.8,0.8
315362,4.83433e+006,103.127,0.8,0.8,0.8
315328,4.83438e+006,100.73,0.8,0.8,0.8
315350,4.83437e+006,81.6534,0.8,0.8,0.8
315365,4.83432e+006,96.5815,0.8,0.8,0.8
315312,4.83439e+006,105.439,0.8,0.8,0.8
315316,4.83438e+006,104.77,0.8,0.8,0.8
315380,4.83437e+006,81.6412,0.8,0.8,0.8
315310,4.83435e+006,81.9285,0.8,0.8,0.8
315304,4.83433e+006,92.3868,0.8,0.8,0.8
315364,4.83438e+006,82.6559,0.8,0.8,0.8
315330,4.83436e+006,92.8511,0.8,0.8,0.8
315327,4.83433e+006,81.397,0.8,0.8,0.8
315317,4.83431e+006,84.8876,0.8,0.8,0.8
315316,4.83436e+006,84.5774,0.8,0.8,0.8
315371,4.83441e+006,108.756,0.8,0.8,0.8
315376,4.83439e+006,121.706,0.8,0.8,0.8
315367,4.83437e+006,87.5538,0.8,0.8,0.8
315324,4.83437e+006,101.453,0.8,0.8,0.8
315351,4.8344e+006,105.346,0.8,0.8,0.8
315318,4.8344e+006,92.3393,0.8,0.8,0.8
315315,4.8344e+006,102.341,0.8,0.8,0.8
315298,4.83438e+006,82.2147,0.8,0.8,0.8
315363,4.83437e+006,97.04,0.8,0.8,0.8
315318,4.8344e+006,82.384,0.8,0.8,0.8
315364,4.83436e+006,83.938,0.8,0.8,0.8
315404,4.83439e+006,98.4211,0.8,0.8,0.8
315366,4.83432e+006,109.155,0.8,0.8,0.8
315315,4.83441e+006,113.19,0.8,0.8,0.8
315355,4.83438e+006,100.732,0.8,0.8,0.8
315343,4.83437e+006,81.6783,0.8,0.8,0.8
315421,4.8344e+006,126.964,0.8,0.8,0.8
315313,4.83439e+006,96.1676,0.8,0.8,0.8
315317,4.83435e+006,81.5803,0.8,0.8,0.8
315356,4.83439e+006,99.5217,0.8,0.8,0.8
315328,4.8344e+006,101.24,0.8,0.8,0.8
315274,4.83435e+006,97.9822,0.8,0.8,0.8
315310,4.83439e+006,89.4447,0.8,0.8,0.8
315326,4.83436e+006,104.85,0.8,0.8,0.8
315334,4.83442e+006,118.743,0.8,0.8,0.8
315346,4.83438e+006,91.7217,0.8,0.8,0.8
315364,4.83437e+006,87.4715,0.8,0.8,0.8
315376,4.83436e+006,81.632,0.8,0.8,0.8
315293,4.83438e+006,85.5388,0.8,0.8,0.8
315323,4.83435e+006,81.5726,0.8,0.8,0.8
315373,4.83433e+006,87.9272,0.8,0.8,0.8
315291,4.83439e+006,92.7378,0.8,0.8,0.8
315288,4.83439e+006,96.4547,0.8,0.8,0.8
315281,4.83442e+006,94.3089,0.8,0.8,0.8
315317,4.83429e+006,79.9293,0.8,0.8,0.8
315344,4.83437e+006,87.1819,0.8,0.8,0.8
315380,4.83436e+006,87.8756,0.8,0.8,0.8
315308,4.83438e+006,81.9499,0.8,0.8,0.8
315333,4.83432e+006,95.1479,0.8,0.8,0.8
315394,4.83438e+006,93.9361,0.8,0.8,0.8
315336,4.83436e+006,93.2604,0.8,0.8,0.8
315365,4.83443e+006,123.172,0.8,0.8,0.8
315322,4.83436e+006,81.7327,0.8,0.8,0.8
315318,4.83441e+006,101.462,0.8,0.8,0.8
315302,4.83441e+006,82.7639,0.8,0.8,0.8
315295,4.83438e+006,91.5425,0.8,0.8,0.8
315317,4.83437e+006,90.7392,0.8,0.8,0.8
315357,4.83438e+006,98.7049,0.8,0.8,0.8
315316,4.83439e+006,91.7687,0.8,0.8,0.8
315326,4.83436e+006,93.1151,0.8,0.8,0.8
315324,4.83438e+006,102.079,0.8,0.8,0.8
315349,4.83438e+006,81.6889,0.8,0.8,0.8
315336,4.83435e+006,84.0039,0.8,0.8,0.8
315334,4.83436e+006,81.5636,0.8,0.8,0.8
315363,4.83437e+006,83.1792,0.8,0.8,0.8
315324,4.83437e+006,99.5429,0.8,0.8,0.8
315333,4.83436e+006,92.6848,0.8,0.8,0.8
315351,4.83436e+006,83.8579,0.8,0.8,0.8
315357,4.83438e+006,101.91,0.8,0.8,0.8
315350,4.83435e+006,89.3661,0.8,0.8,0.8
315319,4.83437e+006,92.5501,0.8,0.8,0.8
315358,4.83437e+006,92.327,0.8,0.8,0.8
315278,4.83434e+006,86.6071,0.8,0.8,0.8
315349,4.83438e+006,82.345,0.8,0.8,0.8
315370,4.83434e+006,85.0973,0.8,0.8,0.8
315349,4.83433e+006,82.8495,0.8,0.8,0.8
315357,4.83439e+006,102.738,0.8,0.8,0.8
315298,4.83443e+006,101.213,0.8,0.8,0.8
315361,4.83443e+006,117.775,0.8,0.8,0.8
315385,4.83439e+006,119.94,0.8,0.8,0.8
315378,4.83439e+006,117.881,0.8,0.8,0.8
315315,4.83431e+006,95.5274,0.8,0.8,0.8
315371,4.83441e+006,108.455,0.8,0.8,0.8
315348,4.83436e+006,82.4663,0.8,0.8,0.8
315330,4.83441e+006,82.1837,0.8,0.8,0.8
315427,4.83438e+006,81.5782,0.8,0.8,0.8
315351,4.83437e+006,104.69,0.8,0.8,0.8
315384,4.83438e+006,95.0754,0.8,0.8,0.8
315303,4.83442e+006,98.7185,0.8,0.8,0.8
315376,4.83432e+006,91.498,0.8,0.8,0.8
315364,4.8344e+006,85.0284,0.8,0.8,0.8
315347,4.83435e+006,88.4259,0.8,0.8,0.8
315339,4.83431e+006,89.5654,0.8,0.8,0.8
315284,4.8344e+006,91.6458,0.8,0.8,0.8
315369,4.83435e+006,81.6479,0.8,0.8,0.8
315284,4.83441e+006,97.1391,0.8,0.8,0.8
315403,4.83437e+006,82.499,0.8,0.8,0.8
315331,4.83434e+006,95.5068,0.8,0.8,0.8
315354,4.83432e+006,94.3562,0.8,0.8,0.8
315281,4.83435e+006,105.953,0.8,0.8,0.8
315382,4.83437e+006,81.6167,0.8,0.8,0.8
315324,4.83434e+006,82.9749,0.8,0.8,0.8
315325,4.83441e+006,90.738,0.8,0.8,0.8
315334,4.83439e+006,98.7486,0.8,0.8,0.8
315329,4.83437e+006,105.759,0.8,0.8,0.8
315327,4.83436e+006,85.5813,0.8,0.8,0.8
315335,4.83434e+006,85.6065,0.8,0.8,0.8
315277,4.83433e+006,87.2659,0.8,0.8,0.8
315332,4.83434e+006,94.8022,0.8,0.8,0.8
315355,4.83432e+006,103.133,0.8,0.8,0.8
315291,4.83439e+006,96.3252,0.8,0.8,0.8
315332,4.83441e+006,95.1115,0.8,0.8,0.8
315377,4.83437e+006,83.1401,0.8,0.8,0.8
315324,4.83439e+006,101.541,0.8,0.8,0.8
315288,4.83435e+006,91.9278,0.8,0.8,0.8
315350,4.83436e+006,84.3655,0.8,0.8,0.8
315370,4.83438e+006,93.1394,0.8,0.8,0.8
315320,4.83439e+006,87.8119,0.8,0.8,0.8
315386,4.83436e+006,82.3402,0.8,0.8,0.8
315367,4.83435e+006,86.3395,0.8,0.8,0.8
315308,4.83433e+006,89.9415,0.8,0.8,0.8
315344,4.83435e+006,82.7423,0.8,0.8,0.8
315374,4.83435e+006,91.101,0.8,0.8,0.8
315352,4.83438e+006,87.5624,0.8,0.8,0.8
315317,4.8344e+006,99.0854,0.8,0.8,0.8
315379,4.83437e+006,87.9404,0.8,0.8,0.8
315312,4.8344e+006,91.1382,0.8,0.8,0.8
315368,4.83432e+006,102.335,0.8,0.8,0.8
315372,4.83433e+006,86.868,0.8,0.8,0.8
315334,4.83438e+006,98.8357,0.8,0.8,0.8
315408,4.83439e+006,81.6348,0.8,0.8,0.8
315377,4.83437e+006,93.1647,0.8,0.8,0.8
315290,4.83439e+006,95.9463,0.8,0.8,0.8
315275,4.83433e+006,92.7468,0.8,0.8,0.8
315307,4.8344e+006,88.6963,0.8,0.8,0.8
315378,4.83439e+006,127.436,0.8,0.8,0.8
315358,4.83437e+006,90.3772,0.8,0.8,0.8
315299,4.83441e+006,85.872,0.8,0.8,0.8
315274,4.83446e+006,85.5763,0.8,0.8,0.8
315319,4.83436e+006,82.7611,0.8,0.8,0.8
315370,4.83441e+006,116.741,0.8,0.8,0.8
315324,4.83438e+006,94.5434,0.8,0.8,0.8
315322,4.83435e+006,81.5888,0.8,0.8,0.8
315340,4.83432e+006,89.6473,0.8,0.8,0.8
315409,4.83437e+006,84.465,0.8,0.8,0.8
315398,4.83437e+006,84.2158,0.8,0.8,0.8
315318,4.83431e+006,84.8142,0.8,0.8,0.8
315281,4.83442e+006,88.3493,0.8,0.8,0.8
315320,4.83429e+006,102.464,0.8,0.8,0.8
315334,4.83432e+006,98.7427,0.8,0.8,0.8
315296,4.83443e+006,83.0167,0.8,0.8,0.8
315261,4.83445e+006,104.001,0.8,0.8,0.8
315305,4.83442e+006,110.92,0.8,0.8,0.8
315379,4.8344e+006,107.942,0.8,0.8,0.8
315297,4.83435e+006,87.6237,0.8,0.8,0.8
315332,4.83441e+006,87.9379,0.8,0.8,0.8
315361,4.83433e+006,84.0463,0.8,0.8,0.8
315349,4.83432e+006,88.7267,0.8,0.8,0.8
315324,4.83436e+006,95.5396,0.8,0.8,0.8
315335,4.8344e+006,101.489,0.8,0.8,0.8
315418,4.83438e+006,87.5231,0.8,0.8,0.8
315377,4.8344e+006,108.798,0.8,0.8,0.8
315293,4.83438e+006,108.764,0.8,0.8,0.8
315327,4.83436e+006,97.9976,0.8,0.8,0.8
315299,4.83443e+006,112.849,0.8,0.8,0.8
315275,4.8344e+006,86.2835,0.8,0.8,0.8
315325,4.83435e+006,83.0281,0.8,0.8,0.8
315355,4.83433e+006,101.305,0.8,0.8,0.8
315344,4.8344e+006,99.4431,0.8,0.8,0.8
315405,4.83437e+006,86.0516,0.8,0.8,0.8
315369,4.83432e+006,107.033,0.8,0.8,0.8
315286,4.8344e+006,99.9425,0.8,0.8,0.8
315298,4.83439e+006,83.423,0.8,0.8,0.8
315307,4.83441e+006,92.7356,0.8,0.8,0.8
315293,4.83438e+006,82.5835,0.8,0.8,0.8
315333,4.83437e+006,98.2713,0.8,0.8,0.8
315421,4.8344e+006,109.954,0.8,0.8,0.8
315345,4.83436e+006,84.3737,0.8,0.8,0.8
315314,4.83435e+006,83.6302,0.8,0.8,0.8
315325,4.83439e+006,100.407,0.8,0.8,0.8
315363,4.83436e+006,91.5777,0.8,0.8,0.8
315375,4.83436e+006,81.926,0.8,0.8,0.8
315365,4.83438e+006,83.5524,0.8,0.8,0.8
315373,4.83435e+006,84.4943,0.8,0.8,0.8
315315,4.83437e+006,82.3526,0.8,0.8,0.8
315372,4.83441e+006,121.233,0.8,0.8,0.8
315331,4.83439e+006,99.1338,0.8,0.8,0.8
315349,4.8343e+006,92.724,0.8,0.8,0.8
315283,4.83443e+006,82.925,0.8,0.8,0.8
315380,4.83437e+006,82.7424,0.8,0.8,0.8
315320,4.83429e+006,100.827,0.8,0.8,0.8
315385,4.83437e+006,81.5973,0.8,0.8,0.8
315358,4.83441e+006,105.407,0.8,0.8,0.8
315280,4.83442e+006,105.917,0.8,0.8,0.8
315352,4.83437e+006,86.2838,0.8,0.8,0.8
315298,4.83437e+006,96.3273,0.8,0.8,0.8
315399,4.83437e+006,86.4538,0.8,0.8,0.8
315318,4.83439e+006,98.7777,0.8,0.8,0.8
315299,4.83436e+006,89.4609,0.8,0.8,0.8
315330,4.83435e+006,82.6657,0.8,0.8,0.8
315374,4.83436e+006,82.7732,0.8,0.8,0.8
315428,4.83436e+006,92.008,0.8,0.8,0.8
315318,4.83437e+006,100.344,0.8,0.8,0.8
315338,4.83436e+006,83.2328,0.8,0.8,0.8
315330,4.83434e+006,83.8506,0.8,0.8,0.8
315359,4.83445e+006,127.374,0.8,0.8,0.8
315292,4.83435e+006,103.937,0.8,0.8,0.8
315346,4.83435e+006,89.9133,0.8,0.8,0.8
315343,4.8344e+006,102.004,0.8,0.8,0.8
315336,4.83437e+006,81.6516,0.8,0.8,0.8
315397,4.83437e+006,83.6347,0.8,0.8,0.8
315376,4.83437e+006,81.4889,0.8,0.8,0.8
315308,4.83439e+006,82.3251,0.8,0.8,0.8
315369,4.83438e+006,94.7323,0.8,0.8,0.8
315307,4.83433e+006,89.5267,0.8,0.8,0.8
315292,4.83433e+006,82.7443,0.8,0.8,0.8
315310,4.83433e+006,86.7209,0.8,0.8,0.8
315355,4.83439e+006,107.139,0.8,0.8,0.8
315314,4.83436e+006,81.6378,0.8,0.8,0.8
315353,4.83437e+006,98.74,0.8,0.8,0.8
315358,4.83437e+006,81.6395,0.8,0.8,0.8
315309,4.83441e+006,105.979,0.8,0.8,0.8
315277,4.83442e+006,85.9007,0.8,0.8,0.8
315340,4.8344e+006,100.34,0.8,0.8,0.8
315303,4.83434e+006,81.6265,0.8,0.8,0.8
315320,4.83429e+006,105.267,0.8,0.8,0.8
315307,4.83442e+006,128.096,0.8,0.8,0.8
315411,4.83437e+006,81.5153,0.8,0.8,0.8
315304,4.8344e+006,84.4963,0.8,0.8,0.8
315356,4.83438e+006,104.902,0.8,0.8,0.8
315334,4.83437e+006,99.5587,0.8,0.8,0.8
315289,4.83435e+006,83.5365,0.8,0.8,0.8
315326,4.83437e+006,99.453,0.8,0.8,0.8
315302,4.83442e+006,91.1323,0.8,0.8,0.8
315345,4.83441e+006,99.9025,0.8,0.8,0.8
315343,4.83432e+006,103.53,0.8,0.8,0.8
315419,4.8344e+006,105.568,0.8,0.8,0.8
315347,4.83439e+006,99.5405,0.8,0.8,0.8
315378,4.83437e+006,81.6467,0.8,0.8,0.8
315293,4.83438e+006,113.15,0.8,0.8,0.8
315303,4.83433e+006,82.7695,0.8,0.8,0.8
315346,4.83433e+006,98.7933,0.8,0.8,0.8
315376,4.8344e+006,127.459,0.8,0.8,0.8
315376,4.83431e+006,84.7418,0.8,0.8,0.8
315352,4.83439e+006,100.272,0.8,0.8,0.8
315341,4.83434e+006,101.115,0.8,0.8,0.8
315369,4.83435e+006,82.3448,0.8,0.8,0.8
315367,4.83438e+006,86.4344,0.8,0.8,0.8
315326,4.83437e+006,101.512,0.8,0.8,0.8
315305,4.83437e+006,81.9073,0.8,0.8,0.8
315298,4.83437e+006,85.0411,0.8,0.8,0.8
315361,4.83437e+006,83.1075,0.8,0.8,0.8
315320,4.83436e+006,87.8809,0.8,0.8,0.8
315329,4.83433e+006,85.1704,0.8,0.8,0.8
315350,4.8344e+006,102.001,0.8,0.8,0.8
315323,4.83434e+006,88.4595,0.8,0.8,0.8
315317,4.83438e+006,90.696,0.8,0.8,0.8
315292,4.83438e+006,101.387,0.8,0.8,0.8
315343,4.83435e+006,87.139,0.8,0.8,0.8
315360,4.83438e+006,81.5056,0.8,0.8,0.8
315329,4.83436e+006,101.137,0.8,0.8,0.8
315341,4.83434e+006,93.5228,0.8,0.8,0.8
315316,4.83438e+006,93.1548,0.8,0.8,0.8
315287,4.83439e+006,84.0345,0.8,0.8,0.8
315423,4.8344e+006,95.9201,0.8,0.8,0.8
315304,4.83441e+006,93.1458,0.8,0.8,0.8
315324,4.83441e+006,82.2963,0.8,0.8,0.8
315325,4.83439e+006,99.1285,0.8,0.8,0.8
315380,4.83438e+006,83.0119,0.8,0.8,0.8
315314,4.83435e+006,81.5769,0.8,0.8,0.8
315367,4.83439e+006,81.126,0.8,0.8,0.8
315305,4.83435e+006,96.7705,0.8,0.8,0.8
315296,4.83439e+006,82.2529,0.8,0.8,0.8
315350,4.83435e+006,81.623,0.8,0.8,0.8
315336,4.83436e+006,83.1364,0.8,0.8,0.8
315326,4.83434e+006,84.2415,0.8,0.8,0.8
315432,4.8344e+006,91.7055,0.8,0.8,0.8
315339,4.83431e+006,88.7527,0.8,0.8,0.8
315359,4.83444e+006,117.822,0.8,0.8,0.8
315367,4.83432e+006,109.735,0.8,0.8,0.8
315319,4.83439e+006,84.1283,0.8,0.8,0.8
315386,4.83436e+006,87.5381,0.8,0.8,0.8
315316,4.8344e+006,95.9327,0.8,0.8,0.8
315292,4.83437e+006,86.891,0.8,0.8,0.8
315349,4.83435e+006,84.7358,0.8,0.8,0.8
315368,4.83435e+006,82.7438,0.8,0.8,0.8
315368,4.83436e+006,83.1315,0.8,0.8,0.8
315328,4.83441e+006,87.9387,0.8,0.8,0.8
315320,4.83432e+006,80.9955,0.8,0.8,0.8
315322,4.83437e+006,87.5048,0.8,0.8,0.8
315281,4.8344e+006,96.5008,0.8,0.8,0.8
315311,4.83435e+006,81.582,0.8,0.8,0.8
315310,4.8344e+006,94.4648,0.8,0.8,0.8
315377,4.83439e+006,105.14,0.8,0.8,0.8
315376,4.83438e+006,97.6763,0.8,0.8,0.8
315315,4.83429e+006,106.685,0.8,0.8,0.8
315292,4.83435e+006,104.322,0.8,0.8,0.8
315368,4.83437e+006,81.6385,0.8,0.8,0.8
315359,4.83437e+006,81.564,0.8,0.8,0.8
315295,4.83434e+006,82.5658,0.8,0.8,0.8
315278,4.83433e+006,85.7507,0.8,0.8,0.8
315309,4.83439e+006,85.9172,0.8,0.8,0.8
315300,4.83436e+006,109.945,0.8,0.8,0.8
315283,4.83441e+006,103.554,0.8,0.8,0.8
315352,4.83435e+006,89.6125,0.8,0.8,0.8
315365,4.83438e+006,100.249,0.8,0.8,0.8
315312,4.83436e+006,81.6748,0.8,0.8,0.8
315372,4.83435e+006,87.9805,0.8,0.8,0.8
315373,4.83438e+006,86.492,0.8,0.8,0.8
315276,4.83435e+006,93.5251,0.8,0.8,0.8
315292,4.83439e+006,86.6089,0.8,0.8,0.8
315337,4.83435e+006,85.7199,0.8,0.8,0.8
315319,4.83439e+006,98.7744,0.8,0.8,0.8
315336,4.83437e+006,99.1706,0.8,0.8,0.8
315362,4.83443e+006,108.788,0.8,0.8,0.8
315350,4.83431e+006,99.531,0.8,0.8,0.8
315340,4.83439e+006,98.7481,0.8,0.8,0.8
315363,4.83436e+006,96.5617,0.8,0.8,0.8
315373,4.8344e+006,104.74,0.8,0.8,0.8
315348,4.83435e+006,90.7411,0.8,0.8,0.8
315353,4.83432e+006,88.744,0.8,0.8,0.8
315369,4.83441e+006,100.747,0.8,0.8,0.8
315329,4.83437e+006,101.192,0.8,0.8,0.8
315370,4.83439e+006,97.767,0.8,0.8,0.8
315332,4.83434e+006,82.1741,0.8,0.8,0.8
315311,4.83441e+006,122.338,0.8,0.8,0.8
315324,4.83438e+006,102.103,0.8,0.8,0.8
315344,4.83432e+006,110.34,0.8,0.8,0.8
315296,4.83437e+006,92.3487,0.8,0.8,0.8
315330,4.83434e+006,83.1405,0.8,0.8,0.8
315281,4.83441e+006,109.191,0.8,0.8,0.8
315312,4.83432e+006,81.9325,0.8,0.8,0.8
315330,4.83437e+006,94.3961,0.8,0.8,0.8
315354,4.83436e+006,81.6327,0.8,0.8,0.8
315346,4.83437e+006,85.9509,0.8,0.8,0.8
315340,4.8343e+006,105.931,0.8,0.8,0.8
315306,4.83434e+006,84.4211,0.8,0.8,0.8
315306,4.8344e+006,87.8416,0.8,0.8,0.8
315328,4.83436e+006,85.5568,0.8,0.8,0.8
315341,4.8343e+006,86.3396,0.8,0.8,0.8
315322,4.83441e+006,120.742,0.8,0.8,0.8
315367,4.83435e+006,86.7394,0.8,0.8,0.8
315291,4.83439e+006,89.562,0.8,0.8,0.8
315298,4.83436e+006,96.756,0.8,0.8,0.8
315353,4.83435e+006,90.9014,0.8,0.8,0.8
315322,4.83437e+006,91.7838,0.8,0.8,0.8
315306,4.83433e+006,83.5463,0.8,0.8,0.8
315326,4.83434e+006,81.6077,0.8,0.8,0.8
315314,4.83431e+006,94.6544,0.8,0.8,0.8
315312,4.83439e+006,100.338,0.8,0.8,0.8
315360,4.83439e+006,100.002,0.8,0.8,0.8
315326,4.83435e+006,81.9916,0.8,0.8,0.8
315347,4.83437e+006,94.7398,0.8,0.8,0.8
315329,4.83434e+006,88.7377,0.8,0.8,0.8
315358,4.83439e+006,82.3909,0.8,0.8,0.8
315303,4.83433e+006,81.678,0.8,0.8,0.8
315361,4.83438e+006,93.3119,0.8,0.8,0.8
315329,4.83435e+006,95.5713,0.8,0.8,0.8
315296,4.83437e+006,90.756,0.8,0.8,0.8
315296,4.83437e+006,107.134,0.8,0.8,0.8
315366,4.83436e+006,87.6146,0.8,0.8,0.8
315328,4.83436e+006,91.6893,0.8,0.8,0.8
315294,4.83438e+006,115.577,0.8,0.8,0.8
315337,4.83431e+006,94.7286,0.8,0.8,0.8
315300,4.83435e+006,94.7273,0.8,0.8,0.8
315363,4.83443e+006,105.804,0.8,0.8,0.8
315314,4.8344e+006,99.8746,0.8,0.8,0.8
315321,4.83433e+006,81.3315,0.8,0.8,0.8
315347,4.83432e+006,87.9392,0.8,0.8,0.8
315341,4.83435e+006,81.611,0.8,0.8,0.8
315341,4.83434e+006,83.9922,0.8,0.8,0.8
315306,4.83437e+006,84.0103,0.8,0.8,0.8
315368,4.83437e+006,81.6497,0.8,0.8,0.8
315390,4.83438e+006,81.5758,0.8,0.8,0.8
315282,4.8344e+006,89.7431,0.8,0.8,0.8
315316,4.8344e+006,103.928,0.8,0.8,0.8
315293,4.83438e+006,115.132,0.8,0.8,0.8
315367,4.83438e+006,97.9251,0.8,0.8,0.8
315362,4.83439e+006,97.5453,0.8,0.8,0.8
315388,4.83436e+006,84.3776,0.8,0.8,0.8
315322,4.8344e+006,96.7337,0.8,0.8,0.8
315376,4.83435e+006,87.5962,0.8,0.8,0.8
315376,4.83436e+006,81.5682,0.8,0.8,0.8
315324,4.8344e+006,91.6832,0.8,0.8,0.8
315353,4.83437e+006,95.1616,0.8,0.8,0.8
315308,4.83434e+006,88.7399,0.8,0.8,0.8
315299,4.83443e+006,91.3689,0.8,0.8,0.8
315389,4.83439e+006,117.889,0.8,0.8,0.8
315356,4.83438e+006,86.7121,0.8,0.8,0.8
315352,4.83432e+006,87.3237,0.8,0.8,0.8
315349,4.83437e+006,85.728,0.8,0.8,0.8
315318,4.83437e+006,98.7416,0.8,0.8,0.8
315308,4.83433e+006,93.542,0.8,0.8,0.8
315343,4.83437e+006,93.6798,0.8,0.8,0.8
315365,4.83438e+006,87.7793,0.8,0.8,0.8
315311,4.83439e+006,105.485,0.8,0.8,0.8
315336,4.83433e+006,94.6684,0.8,0.8,0.8
315333,4.83436e+006,83.0954,0.8,0.8,0.8
315428,4.83439e+006,84.3874,0.8,0.8,0.8
315275,4.83435e+006,91.3072,0.8,0.8,0.8
315363,4.83443e+006,111.8,0.8,0.8,0.8
315300,4.83444e+006,114.379,0.8,0.8,0.8
315369,4.83434e+006,85.5065,0.8,0.8,0.8
315308,4.8344e+006,84.467,0.8,0.8,0.8
315285,4.83441e+006,93.9491,0.8,0.8,0.8
315342,4.83438e+006,87.7831,0.8,0.8,0.8
315380,4.83438e+006,103.542,0.8,0.8,0.8
315336,4.8344e+006,101.982,0.8,0.8,0.8
315353,4.83437e+006,87.1454,0.8,0.8,0.8
315280,4.83442e+006,95.9468,0.8,0.8,0.8
315409,4.83442e+006,92.689,0.8,0.8,0.8
315362,4.83437e+006,82.3894,0.8,0.8,0.8
315365,4.83438e+006,86.4466,0.8,0.8,0.8
315314,4.83437e+006,83.3221,0.8,0.8,0.8
315312,4.83432e+006,92.7449,0.8,0.8,0.8
315360,4.83436e+006,88.0465,0.8,0.8,0.8
315421,4.8344e+006,114.374,0.8,0.8,0.8
315316,4.83434e+006,81.5754,0.8,0.8,0.8
315358,4.83438e+006,101.992,0.8,0.8,0.8
315371,4.83434e+006,86.6832,0.8,0.8,0.8
315293,4.83438e+006,99.137,0.8,0.8,0.8
315352,4.8344e+006,99.5435,0.8,0.8,0.8
315320,4.83436e+006,88.5706,0.8,0.8,0.8
315273,4.83445e+006,84.0712,0.8,0.8,0.8
315293,4.8344e+006,83.0871,0.8,0.8,0.8
315341,4.83432e+006,109.908,0.8,0.8,0.8
315321,4.83439e+006,82.0744,0.8,0.8,0.8
315306,4.83439e+006,89.3224,0.8,0.8,0.8
315356,4.83439e+006,86.5291,0.8,0.8,0.8
315328,4.83436e+006,90.3799,0.8,0.8,0.8
315280,4.83442e+006,86.3521,0.8,0.8,0.8
315356,4.83438e+006,100.526,0.8,0.8,0.8
315380,4.83439e+006,114.859,0.8,0.8,0.8
315370,4.83434e+006,83.1219,0.8,0.8,0.8
315373,4.8344e+006,102.422,0.8,0.8,0.8
315299,4.83437e+006,82.8364,0.8,0.8,0.8
315371,4.83437e+006,81.9824,0.8,0.8,0.8
315319,4.83429e+006,96.7323,0.8,0.8,0.8
315309,4.83436e+006,82.0201,0.8,0.8,0.8
315345,4.83439e+006,99.9204,0.8,0.8,0.8
315300,4.83443e+006,93.1409,0.8,0.8,0.8
315347,4.83431e+006,113.019,0.8,0.8,0.8
315312,4.83441e+006,102.732,0.8,0.8,0.8
315385,4.83437e+006,83.9137,0.8,0.8,0.8
315351,4.83432e+006,88.7175,0.8,0.8,0.8
315312,4.83438e+006,89.0344,0.8,0.8,0.8
315330,4.83442e+006,121.362,0.8,0.8,0.8
315315,4.83429e+006,93.0905,0.8,0.8,0.8
315300,4.83443e+006,113.124,0.8,0.8,0.8
315354,4.83432e+006,98.3936,0.8,0.8,0.8
315345,4.83438e+006,85.5399,0.8,0.8,0.8
315312,4.83435e+006,81.6028,0.8,0.8,0.8
315367,4.83442e+006,114.832,0.8,0.8,0.8
315351,4.83438e+006,98.7066,0.8,0.8,0.8
315318,4.83436e+006,87.7334,0.8,0.8,0.8
315337,4.8344e+006,101.875,0.8,0.8,0.8
315289,4.83439e+006,89.3183,0.8,0.8,0.8
315300,4.83437e+006,81.9783,0.8,0.8,0.8
315384,4.83437e+006,81.6587,0.8,0.8,0.8
315300,4.83436e+006,81.9319,0.8,0.8,0.8
315329,4.83434e+006,84.3387,0.8,0.8,0.8
315378,4.83436e+006,85.504,0.8,0.8,0.8
315426,4.83439e+006,90.1735,0.8,0.8,0.8
315390,4.83437e+006,83.9171,0.8,0.8,0.8
315338,4.83437e+006,95.5365,0.8,0.8,0.8
315324,4.83436e+006,81.6273,0.8,0.8,0.8
315418,4.8344e+006,85.9415,0.8,0.8,0.8
315315,4.83436e+006,84.7536,0.8,0.8,0.8
315328,4.83438e+006,99.1404,0.8,0.8,0.8
315291,4.83436e+006,86.1363,0.8,0.8,0.8
315303,4.83443e+006,101.83,0.8,0.8,0.8
315347,4.83437e+006,90.2232,0.8,0.8,0.8
315286,4.8344e+006,99.5395,0.8,0.8,0.8
315320,4.83435e+006,82.407,0.8,0.8,0.8
315313,4.83429e+006,100.655,0.8,0.8,0.8
315301,4.83438e+006,84.1951,0.8,0.8,0.8
315334,4.83432e+006,82.3425,0.8,0.8,0.8
315277,4.83444e+006,84.7643,0.8,0.8,0.8
315423,4.83439e+006,87.9376,0.8,0.8,0.8
315322,4.8343e+006,103.761,0.8,0.8,0.8
315370,4.83441e+006,96.3525,0.8,0.8,0.8
315310,4.8344e+006,85.9434,0.8,0.8,0.8
315302,4.83441e+006,82.7043,0.8,0.8,0.8
315329,4.83436e+006,86.378,0.8,0.8,0.8
315354,4.83435e+006,88.4062,0.8,0.8,0.8
315365,4.83437e+006,90.0228,0.8,0.8,0.8
315300,4.83443e+006,115.927,0.8,0.8,0.8
315309,4.8344e+006,86.5815,0.8,0.8,0.8
315344,4.8344e+006,98.7155,0.8,0.8,0.8
315364,4.83442e+006,117.817,0.8,0.8,0.8
315355,4.83438e+006,78.1033,0.8,0.8,0.8
315329,4.83435e+006,81.6135,0.8,0.8,0.8
315316,4.83431e+006,81.0328,0.8,0.8,0.8
315334,4.83431e+006,87.5269,0.8,0.8,0.8
315377,4.83439e+006,127.429,0.8,0.8,0.8
315327,4.83436e+006,79.4754,0.8,0.8,0.8
315339,4.83437e+006,99.5727,0.8,0.8,0.8
315282,4.83441e+006,105.931,0.8,0.8,0.8
315309,4.83436e+006,97.5628,0.8,0.8,0.8
315320,4.83433e+006,81.3284,0.8,0.8,0.8
315302,4.83442e+006,102.73,0.8,0.8,0.8
315312,4.83441e+006,93.9379,0.8,0.8,0.8
315383,4.83438e+006,116.193,0.8,0.8,0.8
315294,4.83438e+006,90.3295,0.8,0.8,0.8
315367,4.83438e+006,98.4193,0.8,0.8,0.8
315300,4.83436e+006,85.5586,0.8,0.8,0.8
315307,4.83439e+006,82.0133,0.8,0.8,0.8
315364,4.83436e+006,84.1391,0.8,0.8,0.8
315305,4.83441e+006,88.7149,0.8,0.8,0.8
315381,4.83438e+006,97.5613,0.8,0.8,0.8
315369,4.83435e+006,86.2976,0.8,0.8,0.8
315354,4.83438e+006,105.536,0.8,0.8,0.8
315368,4.83442e+006,124.527,0.8,0.8,0.8
315377,4.83435e+006,84.4856,0.8,0.8,0.8
315366,4.83433e+006,93.6305,0.8,0.8,0.8
315336,4.83436e+006,82.3741,0.8,0.8,0.8
315347,4.83437e+006,96.7407,0.8,0.8,0.8
315293,4.83438e+006,107.941,0.8,0.8,0.8
315301,4.83441e+006,84.7521,0.8,0.8,0.8
315319,4.83435e+006,84.6067,0.8,0.8,0.8
315371,4.83438e+006,98.4389,0.8,0.8,0.8
315281,4.83433e+006,94.7088,0.8,0.8,0.8
315278,4.83442e+006,88.4859,0.8,0.8,0.8
315293,4.83433e+006,90.8681,0.8,0.8,0.8
315316,4.83431e+006,81.1857,0.8,0.8,0.8
315308,4.83436e+006,95.7769,0.8,0.8,0.8
315336,4.83431e+006,99.2,0.8,0.8,0.8
315378,4.83438e+006,81.6458,0.8,0.8,0.8
315349,4.83432e+006,91.5021,0.8,0.8,0.8
315331,4.83445e+006,107.879,0.8,0.8,0.8
315341,4.83434e+006,90.7516,0.8,0.8,0.8
315328,4.83441e+006,82.2674,0.8,0.8,0.8
315328,4.83441e+006,103.719,0.8,0.8,0.8
315348,4.83438e+006,82.376,0.8,0.8,0.8
315338,4.83434e+006,94.8332,0.8,0.8,0.8
315339,4.83436e+006,89.2562,0.8,0.8,0.8
315427,4.83437e+006,92.3112,0.8,0.8,0.8
315378,4.83438e+006,98.3645,0.8,0.8,0.8
315332,4.83433e+006,96.1141,0.8,0.8,0.8
315347,4.83437e+006,88.337,0.8,0.8,0.8
315354,4.83438e+006,82.9157,0.8,0.8,0.8
315366,4.83433e+006,98.5288,0.8,0.8,0.8
315378,4.83439e+006,105.14,0.8,0.8,0.8
315404,4.83437e+006,85.8753,0.8,0.8,0.8
315381,4.83438e+006,84.0098,0.8,0.8,0.8
315304,4.83433e+006,94.0313,0.8,0.8,0.8
315340,4.83437e+006,100.032,0.8,0.8,0.8
315336,4.83435e+006,83.0284,0.8,0.8,0.8
315332,4.83434e+006,84.3194,0.8,0.8,0.8
315328,4.83435e+006,84.7672,0.8,0.8,0.8
315357,4.83436e+006,81.5404,0.8,0.8,0.8
315360,4.83438e+006,86.9641,0.8,0.8,0.8
315302,4.83437e+006,84.2734,0.8,0.8,0.8
315367,4.8344e+006,86.6662,0.8,0.8,0.8
315304,4.83442e+006,120.741,0.8,0.8,0.8
315355,4.83439e+006,103.936,0.8,0.8,0.8
315416,4.83436e+006,85.2854,0.8,0.8,0.8
315343,4.83436e+006,81.6076,0.8,0.8,0.8
315339,4.83431e+006,104.854,0.8,0.8,0.8
315369,4.83439e+006,86.9438,0.8,0.8,0.8
315309,4.8344e+006,104.34,0.8,0.8,0.8
315347,4.8344e+006,102.013,0.8,0.8,0.8
315290,4.83439e+006,93.5723,0.8,0.8,0.8
315343,4.83437e+006,96.4287,0.8,0.8,0.8
315355,4.83435e+006,84.6615,0.8,0.8,0.8
315329,4.83433e+006,81.837,0.8,0.8,0.8
315320,4.83434e+006,81.4388,0.8,0.8,0.8
315314,4.83435e+006,81.5746,0.8,0.8,0.8
315353,4.83435e+006,82.7415,0.8,0.8,0.8
315335,4.83432e+006,93.9239,0.8,0.8,0.8
315318,4.83438e+006,101.186,0.8,0.8,0.8
315321,4.83437e+006,83.154,0.8,0.8,0.8
315391,4.83438e+006,96.1746,0.8,0.8,0.8
315326,4.83436e+006,97.8225,0.8,0.8,0.8
315283,4.8344e+006,86.361,0.8,0.8,0.8
315334,4.83436e+006,81.5922,0.8,0.8,0.8
315348,4.83435e+006,90.3636,0.8,0.8,0.8
315275,4.83435e+006,100.329,0.8,0.8,0.8
315291,4.8344e+006,88.5138,0.8,0.8,0.8
315259,4.83432e+006,81.295,0.8,0.8,0.8
315344,4.83433e+006,87.9393,0.8,0.8,0.8
315304,4.83433e+006,85.1407,0.8,0.8,0.8
315305,4.83437e+006,86.1541,0.8,0.8,0.8
315380,4.83438e+006,90.5683,0.8,0.8,0.8
315300,4.83436e+006,99.9171,0.8,0.8,0.8
315331,4.83431e+006,88.4372,0.8,0.8,0.8
315285,4.83434e+006,81.5208,0.8,0.8,0.8
315286,4.8344e+006,92.3367,0.8,0.8,0.8
315366,4.83438e+006,86.9222,0.8,0.8,0.8
315357,4.83436e+006,83.6897,0.8,0.8,0.8
315390,4.83438e+006,81.6167,0.8,0.8,0.8
315317,4.83438e+006,85.2076,0.8,0.8,0.8
315327,4.83441e+006,82.2261,0.8,0.8,0.8
315386,4.83436e+006,89.537,0.8,0.8,0.8
315347,4.83435e+006,81.9329,0.8,0.8,0.8
315277,4.83432e+006,96.892,0.8,0.8,0.8
315299,4.83435e+006,98.5242,0.8,0.8,0.8
315302,4.83441e+006,82.5416,0.8,0.8,0.8
315318,4.83429e+006,105.211,0.8,0.8,0.8
315307,4.83441e+006,112.766,0.8,0.8,0.8
315276,4.83443e+006,87.1221,0.8,0.8,0.8
315311,4.83433e+006,81.5109,0.8,0.8,0.8
315357,4.83432e+006,87.977,0.8,0.8,0.8
315319,4.83439e+006,101.576,0.8,0.8,0.8
315352,4.83437e+006,98.5368,0.8,0.8,0.8
315312,4.83439e+006,94.7636,0.8,0.8,0.8
315330,4.83435e+006,81.9775,0.8,0.8,0.8
315299,4.83436e+006,93.527,0.8,0.8,0.8
315283,4.83435e+006,111.272,0.8,0.8,0.8
315318,4.83436e+006,84.3744,0.8,0.8,0.8
315348,4.8344e+006,109.282,0.8,0.8,0.8
315284,4.83441e+006,87.9363,0.8,0.8,0.8
315295,4.83435e+006,86.3439,0.8,0.8,0.8
315277,4.83435e+006,104.115,0.8,0.8,0.8
315367,4.83439e+006,86.9436,0.8,0.8,0.8
315329,4.83434e+006,83.9431,0.8,0.8,0.8
315287,4.8344e+006,94.2283,0.8,0.8,0.8
315309,4.83433e+006,81.5991,0.8,0.8,0.8
315295,4.83439e+006,84.1907,0.8,0.8,0.8
315334,4.83439e+006,99.5876,0.8,0.8,0.8
315367,4.83437e+006,87.3984,0.8,0.8,0.8
315355,4.83437e+006,99.1211,0.8,0.8,0.8
315379,4.83438e+006,102.341,0.8,0.8,0.8
315344,4.83433e+006,91.1536,0.8,0.8,0.8
315335,4.83443e+006,116.884,0.8,0.8,0.8
315330,4.83433e+006,96.0825,0.8,0.8,0.8
315305,4.83436e+006,82.3659,0.8,0.8,0.8
315346,4.83435e+006,82.6178,0.8,0.8,0.8
315311,4.8344e+006,99.1383,0.8,0.8,0.8
315300,4.83436e+006,113.15,0.8,0.8,0.8
315296,4.83444e+006,85.5081,0.8,0.8,0.8
315354,4.83432e+006,96.3398,0.8,0.8,0.8
315315,4.83436e+006,81.9267,0.8,0.8,0.8
315365,4.83443e+006,122.325,0.8,0.8,0.8
315283,4.83442e+006,83.4609,0.8,0.8,0.8
315318,4.83436e+006,93.79,0.8,0.8,0.8
315308,4.83439e+006,86.7526,0.8,0.8,0.8
315276,4.83441e+006,98.7545,0.8,0.8,0.8
315302,4.8344e+006,82.2925,0.8,0.8,0.8
315318,4.8344e+006,107.534,0.8,0.8,0.8
315355,4.83438e+006,108.388,0.8,0.8,0.8
315323,4.83439e+006,102.002,0.8,0.8,0.8
315367,4.83438e+006,82.8232,0.8,0.8,0.8
315280,4.8344e+006,93.7426,0.8,0.8,0.8
315430,4.8344e+006,98.1784,0.8,0.8,0.8
315299,4.83435e+006,87.9723,0.8,0.8,0.8
315298,4.83433e+006,83.934,0.8,0.8,0.8
315324,4.83441e+006,99.9373,0.8,0.8,0.8
315377,4.83439e+006,81.5625,0.8,0.8,0.8
315314,4.83432e+006,90.3654,0.8,0.8,0.8
315337,4.83437e+006,95.9813,0.8,0.8,0.8
315367,4.83437e+006,81.9669,0.8,0.8,0.8
315356,4.83435e+006,83.351,0.8,0.8,0.8
315367,4.83435e+006,86.3359,0.8,0.8,0.8
315302,4.83437e+006,81.9309,0.8,0.8,0.8
315328,4.83436e+006,85.1577,0.8,0.8,0.8
315343,4.83437e+006,101.532,0.8,0.8,0.8
315341,4.83434e+006,101.258,0.8,0.8,0.8
315366,4.83437e+006,84.1088,0.8,0.8,0.8
315350,4.83432e+006,102.74,0.8,0.8,0.8
315372,4.83436e+006,84.7387,0.8,0.8,0.8
315383,4.83438e+006,82.7531,0.8,0.8,0.8
315291,4.83439e+006,93.9411,0.8,0.8,0.8
315322,4.83436e+006,82.7129,0.8,0.8,0.8
315306,4.8344e+006,82.5414,0.8,0.8,0.8
315292,4.83435e+006,82.4892,0.8,0.8,0.8
315324,4.8344e+006,101.603,0.8,0.8,0.8
315342,4.83436e+006,81.595,0.8,0.8,0.8
315356,4.83436e+006,84.3058,0.8,0.8,0.8
315288,4.83435e+006,86.3843,0.8,0.8,0.8
315298,4.83435e+006,81.5263,0.8,0.8,0.8
315332,4.83435e+006,87.0929,0.8,0.8,0.8
315309,4.83441e+006,91.9436,0.8,0.8,0.8
315427,4.8344e+006,111.213,0.8,0.8,0.8
315416,4.83438e+006,81.9574,0.8,0.8,0.8
315345,4.83438e+006,84.7427,0.8,0.8,0.8
315298,4.83443e+006,99.9468,0.8,0.8,0.8
315365,4.83443e+006,116.333,0.8,0.8,0.8
315369,4.83436e+006,85.6435,0.8,0.8,0.8
315295,4.83435e+006,84.2053,0.8,0.8,0.8
315365,4.83442e+006,111.82,0.8,0.8,0.8
315390,4.83437e+006,81.6272,0.8,0.8,0.8
315288,4.83439e+006,94.7368,0.8,0.8,0.8
315325,4.83434e+006,82.3149,0.8,0.8,0.8
315381,4.83436e+006,84.2388,0.8,0.8,0.8
315337,4.83437e+006,91.191,0.8,0.8,0.8
315360,4.83437e+006,102.74,0.8,0.8,0.8
315351,4.83438e+006,85.1127,0.8,0.8,0.8
315376,4.83439e+006,118.318,0.8,0.8,0.8
315274,4.83445e+006,95.4126,0.8,0.8,0.8
315380,4.83438e+006,95.4054,0.8,0.8,0.8
315373,4.83433e+006,88.2627,0.8,0.8,0.8
315280,4.83444e+006,83.0389,0.8,0.8,0.8
315313,4.83431e+006,82.3343,0.8,0.8,0.8
315378,4.83433e+006,87.1003,0.8,0.8,0.8
315348,4.83441e+006,85.0218,0.8,0.8,0.8
315387,4.83436e+006,92.8905,0.8,0.8,0.8
315297,4.83443e+006,88.784,0.8,0.8,0.8
315321,4.83437e+006,101.18,0.8,0.8,0.8
315369,4.83441e+006,100.707,0.8,0.8,0.8
315308,4.83435e+006,92.4302,0.8,0.8,0.8
315321,4.83437e+006,99.2776,0.8,0.8,0.8
315343,4.83437e+006,87.7389,0.8,0.8,0.8
315319,4.8344e+006,101.146,0.8,0.8,0.8
315299,4.83443e+006,85.5008,0.8,0.8,0.8
315332,4.83436e+006,81.6332,0.8,0.8,0.8
315375,4.83435e+006,88.2755,0.8,0.8,0.8
315429,4.83439e+006,87.0971,0.8,0.8,0.8
315391,4.83437e+006,81.6559,0.8,0.8,0.8
315368,4.83439e+006,82.3384,0.8,0.8,0.8
315292,4.83438e+006,92.3979,0.8,0.8,0.8
315371,4.83431e+006,101.321,0.8,0.8,0.8
315337,4.83443e+006,116.879,0.8,0.8,0.8
315307,4.83435e+006,82.9087,0.8,0.8,0.8
315346,4.83438e+006,101.193,0.8,0.8,0.8
315287,4.8344e+006,101.526,0.8,0.8,0.8
315325,4.83437e+006,87.5234,0.8,0.8,0.8
315327,4.8344e+006,101.514,0.8,0.8,0.8
315407,4.83437e+006,81.6267,0.8,0.8,0.8
315358,4.83436e+006,86.5272,0.8,0.8,0.8
315301,4.83436e+006,85.5665,0.8,0.8,0.8
315321,4.83437e+006,98.79,0.8,0.8,0.8
315332,4.83441e+006,105.546,0.8,0.8,0.8
315338,4.83438e+006,85.5368,0.8,0.8,0.8
315325,4.83436e+006,98.3235,0.8,0.8,0.8
315290,4.83445e+006,83.8063,0.8,0.8,0.8
315411,4.83439e+006,94.6538,0.8,0.8,0.8
315401,4.83436e+006,87.9417,0.8,0.8,0.8
315304,4.83434e+006,81.6256,0.8,0.8,0.8
315357,4.83435e+006,81.5608,0.8,0.8,0.8
315322,4.83434e+006,87.8074,0.8,0.8,0.8
315381,4.83438e+006,88.8168,0.8,0.8,0.8
315362,4.83436e+006,87.6452,0.8,0.8,0.8
315315,4.8344e+006,87.9405,0.8,0.8,0.8
315353,4.83435e+006,90.0734,0.8,0.8,0.8
315314,4.83436e+006,85.0907,0.8,0.8,0.8
315288,4.83435e+006,103.952,0.8,0.8,0.8
315349,4.83435e+006,91.4974,0.8,0.8,0.8
315303,4.83436e+006,83.6415,0.8,0.8,0.8
315402,4.83439e+006,86.3333,0.8,0.8,0.8
315336,4.83438e+006,102.078,0.8,0.8,0.8
315323,4.83437e+006,84.0429,0.8,0.8,0.8
315303,4.83442e+006,87.5792,0.8,0.8,0.8
315373,4.8344e+006,115.321,0.8,0.8,0.8
315306,4.83433e+006,94.7327,0.8,0.8,0.8
315355,4.83438e+006,81.7107,0.8,0.8,0.8
315380,4.83437e+006,82.0793,0.8,0.8,0.8
315299,4.83443e+006,83.04,0.8,0.8,0.8
315288,4.83435e+006,81.7272,0.8,0.8,0.8
315321,4.83441e+006,100.041,0.8,0.8,0.8
315293,4.83438e+006,89.1372,0.8,0.8,0.8
315325,4.8344e+006,97.1614,0.8,0.8,0.8
315286,4.8344e+006,96.3623,0.8,0.8,0.8
315398,4.83439e+006,99.9958,0.8,0.8,0.8
315314,4.83439e+006,105.239,0.8,0.8,0.8
315358,4.83438e+006,85.9349,0.8,0.8,0.8
315315,4.83435e+006,82.3402,0.8,0.8,0.8
315319,4.8344e+006,101.942,0.8,0.8,0.8
315367,4.83436e+006,83.6829,0.8,0.8,0.8
315290,4.83446e+006,98.7268,0.8,0.8,0.8
315358,4.83435e+006,86.3116,0.8,0.8,0.8
315358,4.83437e+006,83.4153,0.8,0.8,0.8
315317,4.83438e+006,99.9377,0.8,0.8,0.8
315302,4.83435e+006,88.2551,0.8,0.8,0.8
315368,4.83436e+006,81.5282,0.8,0.8,0.8
315297,4.83443e+006,91.1427,0.8,0.8,0.8
315385,4.83438e+006,100.62,0.8,0.8,0.8
315317,4.83437e+006,94.3402,0.8,0.8,0.8
315351,4.83438e+006,101.63,0.8,0.8,0.8
315308,4.83437e+006,93.9244,0.8,0.8,0.8
315401,4.83438e+006,81.6298,0.8,0.8,0.8
315295,4.83439e+006,83.1979,0.8,0.8,0.8
315296,4.83442e+006,83.6087,0.8,0.8,0.8
315340,4.83437e+006,98.7499,0.8,0.8,0.8
315320,4.83439e+006,82.7521,0.8,0.8,0.8
315319,4.83439e+006,102.066,0.8,0.8,0.8
315354,4.83437e+006,81.5972,0.8,0.8,0.8
315390,4.83437e+006,86.2338,0.8,0.8,0.8
315350,4.8344e+006,101.594,0.8,0.8,0.8
315348,4.83435e+006,88.3764,0.8,0.8,0.8
315302,4.83436e+006,81.835,0.8,0.8,0.8
315355,4.83437e+006,84.9362,0.8,0.8,0.8
315299,4.83436e+006,85.1376,0.8,0.8,0.8
315300,4.83435e+006,83.2474,0.8,0.8,0.8
315281,4.83435e+006,92.2201,0.8,0.8,0.8
315348,4.83436e+006,86.3532,0.8,0.8,0.8
315348,4.83437e+006,102.017,0.8,0.8,0.8
315368,4.83437e+006,90.402,0.8,0.8,0.8
