x,y,z,r,g,b
512746,5.40359e+006,330.47,0.8,0.8,0.8
512859,5.40399e+006,377.56,0.8,0.8,0.8
512950,5.40392e+006,363.77,0.8,0.8,0.8
512203,5.40389e+006,353.92,0.8,0.8,0.8
512446,5.40383e+006,353.86,0.8,0.8,0.8
512870,5.40364e+006,315.63,0.8,0.8,0.8
512543,5.404e+006,407.38,0.8,0.8,0.8
512728,5.40391e+006,404.75,0.8,0.8,0.8
513140,5.40354e+006,294.89,0.8,0.8,0.8
512674,5.40374e+006,388.18,0.8,0.8,0.8
512800,5.40397e+006,402.66,0.8,0.8,0.8
512348,5.40367e+006,333.69,0.8,0.8,0.8
512742,5.40378e+006,401.15,0.8,0.8,0.8
512913,5.40362e+006,307.08,0.8,0.8,0.8
512232,5.40362e+006,337.31,0.8,0.8,0.8
512617,5.40387e+006,396.23,0.8,0.8,0.8
512327,5.40367e+006,342.25,0.8,0.8,0.8
512909,5.40395e+006,370.25,0.8,0.8,0.8
512701,5.40386e+006,413.1,0.8,0.8,0.8
512585,5.40341e+006,316.31,0.8,0.8,0.8
512214,5.40367e+006,338.57,0.8,0.8,0.8
513106,5.4037e+006,305.32,0.8,0.8,0.8
513097,5.40399e+006,330.16,0.8,0.8,0.8
512893,5.40354e+006,311.43,0.8,0.8,0.8
513105,5.404e+006,341.27,0.8,0.8,0.8
513086,5.4036e+006,305.91,0.8,0.8,0.8
512912,5.40395e+006,370.03,0.8,0.8,0.8
512875,5.40392e+006,375.56,0.8,0.8,0.8
512433,5.40361e+006,339.34,0.8,0.8,0.8
512577,5.404e+006,403.84,0.8,0.8,0.8
512483,5.404e+006,400.45,0.8,0.8,0.8
512977,5.40356e+006,302.46,0.8,0.8,0.8
512316,5.40395e+006,369.85,0.8,0.8,0.8
512372,5.40342e+006,323.39,0.8,0.8,0.8
512983,5.40377e+006,350.45,0.8,0.8,0.8
512159,5.40357e+006,347.38,0.8,0.8,0.8
512641,5.40398e+006,413.27,0.8,0.8,0.8
512378,5.40341e+006,325.1,0.8,0.8,0.8
512136,5.40347e+006,334.91,0.8,0.8,0.8
512139,5.40403e+006,350.58,0.8,0.8,0.8
512982,5.40384e+006,358.48,0.8,0.8,0.8
512616,5.40354e+006,330.32,0.8,0.8,0.8
512814,5.40349e+006,317.56,0.8,0.8,0.8
512088,5.40386e+006,344.39,0.8,0.8,0.8
512617,5.4039e+006,402.83,0.8,0.8,0.8
512419,5.40371e+006,324.96,0.8,0.8,0.8
512605,5.40401e+006,403.86,0.8,0.8,0.8
512978,5.40352e+006,317.36,0.8,0.8,0.8
512243,5.40391e+006,357.57,0.8,0.8,0.8
512936,5.40356e+006,301.83,0.8,0.8,0.8
512249,5.40371e+006,342.37,0.8,0.8,0.8
512845,5.40365e+006,312.13,0.8,0.8,0.8
512272,5.40389e+006,350.43,0.8,0.8,0.8
512139,5.40344e+006,322.9,0.8,0.8,0.8
512475,5.40371e+006,345.8,0.8,0.8,0.8
512987,5.40409e+006,368.77,0.8,0.8,0.8
512758,5.40392e+006,396.66,0.8,0.8,0.8
513136,5.40402e+006,321.22,0.8,0.8,0.8
512934,5.40387e+006,370.7,0.8,0.8,0.8
512798,5.40364e+006,328.61,0.8,0.8,0.8
512200,5.40355e+006,333.71,0.8,0.8,0.8
512534,5.40388e+006,390.22,0.8,0.8,0.8
512053,5.40389e+006,344.43,0.8,0.8,0.8
512273,5.40362e+006,330.35,0.8,0.8,0.8
512212,5.40374e+006,352.64,0.8,0.8,0.8
513097,5.40406e+006,330.64,0.8,0.8,0.8
512446,5.40368e+006,323.29,0.8,0.8,0.8
512611,5.40347e+006,322.15,0.8,0.8,0.8
512594,5.40375e+006,385.01,0.8,0.8,0.8
512073,5.4036e+006,344.2,0.8,0.8,0.8
513131,5.40379e+006,330.57,0.8,0.8,0.8
512197,5.40405e+006,382.36,0.8,0.8,0.8
512111,5.40389e+006,346.34,0.8,0.8,0.8
513098,5.40404e+006,339.72,0.8,0.8,0.8
512822,5.40363e+006,308.73,0.8,0.8,0.8
512135,5.40359e+006,346.91,0.8,0.8,0.8
512525,5.40377e+006,373.53,0.8,0.8,0.8
513045,5.40381e+006,341.19,0.8,0.8,0.8
512950,5.40347e+006,316.42,0.8,0.8,0.8
513081,5.40404e+006,346.39,0.8,0.8,0.8
512084,5.40363e+006,342.45,0.8,0.8,0.8
513115,5.40385e+006,333.29,0.8,0.8,0.8
513097,5.40392e+006,338.72,0.8,0.8,0.8
512375,5.40375e+006,339.7,0.8,0.8,0.8
513059,5.40353e+006,298.01,0.8,0.8,0.8
512562,5.40404e+006,414.71,0.8,0.8,0.8
512642,5.40377e+006,386.93,0.8,0.8,0.8
512365,5.40369e+006,330.83,0.8,0.8,0.8
513011,5.40385e+006,354.17,0.8,0.8,0.8
512308,5.40346e+006,329.58,0.8,0.8,0.8
512483,5.40402e+006,399.33,0.8,0.8,0.8
512677,5.4038e+006,397.77,0.8,0.8,0.8
513079,5.40356e+006,303.63,0.8,0.8,0.8
512732,5.40348e+006,303.94,0.8,0.8,0.8
512562,5.40396e+006,400.84,0.8,0.8,0.8
512901,5.40351e+006,297.78,0.8,0.8,0.8
512231,5.40344e+006,337.95,0.8,0.8,0.8
512614,5.4036e+006,340.48,0.8,0.8,0.8
512779,5.40385e+006,399.72,0.8,0.8,0.8
512828,5.40364e+006,325.98,0.8,0.8,0.8
512611,5.40341e+006,306.43,0.8,0.8,0.8
513079,5.40346e+006,301.85,0.8,0.8,0.8
512557,5.40375e+006,377.47,0.8,0.8,0.8
512598,5.40373e+006,392.39,0.8,0.8,0.8
513049,5.40375e+006,325.21,0.8,0.8,0.8
512347,5.40381e+006,348.55,0.8,0.8,0.8
513039,5.40382e+006,341.13,0.8,0.8,0.8
512703,5.4038e+006,403.15,0.8,0.8,0.8
512415,5.40397e+006,374.26,0.8,0.8,0.8
512108,5.40405e+006,355.27,0.8,0.8,0.8
512683,5.40364e+006,355.1,0.8,0.8,0.8
512847,5.40366e+006,322.87,0.8,0.8,0.8
512286,5.40387e+006,344.26,0.8,0.8,0.8
513050,5.40394e+006,343.58,0.8,0.8,0.8
512254,5.40363e+006,340.29,0.8,0.8,0.8
512749,5.40404e+006,406.5,0.8,0.8,0.8
512801,5.40383e+006,387.11,0.8,0.8,0.8
512589,5.40341e+006,308.8,0.8,0.8,0.8
512071,5.40364e+006,338.9,0.8,0.8,0.8
512519,5.40378e+006,372.98,0.8,0.8,0.8
512799,5.40377e+006,384.35,0.8,0.8,0.8
512154,5.40381e+006,345.82,0.8,0.8,0.8
512883,5.40353e+006,318.44,0.8,0.8,0.8
512057,5.40344e+006,319.26,0.8,0.8,0.8
512051,5.40347e+006,319.97,0.8,0.8,0.8
512301,5.40356e+006,333.72,0.8,0.8,0.8
512130,5.40364e+006,337.09,0.8,0.8,0.8
512939,5.40408e+006,375.7,0.8,0.8,0.8
512826,5.40408e+006,395.47,0.8,0.8,0.8
512333,5.40402e+006,391.19,0.8,0.8,0.8
512092,5.40396e+006,350.19,0.8,0.8,0.8
512811,5.40384e+006,382.32,0.8,0.8,0.8
512173,5.40391e+006,353.94,0.8,0.8,0.8
512429,5.40402e+006,392.57,0.8,0.8,0.8
512637,5.40374e+006,386.97,0.8,0.8,0.8
512598,5.40351e+006,308.98,0.8,0.8,0.8
512717,5.40352e+006,321.68,0.8,0.8,0.8
512830,5.40362e+006,326,0.8,0.8,0.8
512298,5.40401e+006,382.04,0.8,0.8,0.8
512064,5.40379e+006,347.1,0.8,0.8,0.8
513007,5.40402e+006,350.66,0.8,0.8,0.8
512890,5.40343e+006,312.01,0.8,0.8,0.8
512781,5.40383e+006,390.22,0.8,0.8,0.8
512497,5.40392e+006,384.69,0.8,0.8,0.8
512234,5.40383e+006,334.4,0.8,0.8,0.8
512193,5.40365e+006,342.32,0.8,0.8,0.8
512428,5.40356e+006,335.19,0.8,0.8,0.8
512497,5.40408e+006,397.06,0.8,0.8,0.8
512063,5.40348e+006,327.47,0.8,0.8,0.8
512675,5.40358e+006,328.72,0.8,0.8,0.8
512146,5.40343e+006,334.13,0.8,0.8,0.8
512140,5.40359e+006,341.65,0.8,0.8,0.8
512168,5.40385e+006,347.38,0.8,0.8,0.8
512391,5.40347e+006,317.27,0.8,0.8,0.8
512377,5.40374e+006,327.21,0.8,0.8,0.8
512634,5.40364e+006,349.58,0.8,0.8,0.8
512378,5.40379e+006,342.19,0.8,0.8,0.8
512371,5.40363e+006,349.74,0.8,0.8,0.8
512784,5.40362e+006,318.34,0.8,0.8,0.8
512717,5.40367e+006,365.82,0.8,0.8,0.8
512490,5.40408e+006,397.04,0.8,0.8,0.8
512386,5.40355e+006,322.97,0.8,0.8,0.8
513149,5.40357e+006,321.36,0.8,0.8,0.8
512586,5.40371e+006,389.73,0.8,0.8,0.8
512406,5.40359e+006,338.45,0.8,0.8,0.8
512841,5.40393e+006,384.05,0.8,0.8,0.8
512779,5.40383e+006,394.01,0.8,0.8,0.8
512589,5.40362e+006,347.43,0.8,0.8,0.8
512857,5.40403e+006,381.12,0.8,0.8,0.8
513095,5.4036e+006,305.88,0.8,0.8,0.8
513043,5.40382e+006,343.03,0.8,0.8,0.8
512360,5.40398e+006,387.43,0.8,0.8,0.8
512180,5.40341e+006,317.84,0.8,0.8,0.8
513039,5.40353e+006,306.69,0.8,0.8,0.8
512517,5.40361e+006,324.01,0.8,0.8,0.8
512753,5.40354e+006,307.7,0.8,0.8,0.8
513092,5.4035e+006,293.84,0.8,0.8,0.8
512527,5.40341e+006,310.67,0.8,0.8,0.8
512206,5.40356e+006,341.3,0.8,0.8,0.8
512560,5.40369e+006,363.5,0.8,0.8,0.8
512385,5.40395e+006,381.27,0.8,0.8,0.8
513076,5.40402e+006,344.96,0.8,0.8,0.8
513003,5.40403e+006,347.85,0.8,0.8,0.8
512743,5.40399e+006,411.47,0.8,0.8,0.8
512451,5.40392e+006,372.96,0.8,0.8,0.8
512192,5.40376e+006,342.91,0.8,0.8,0.8
512819,5.40375e+006,353.64,0.8,0.8,0.8
512201,5.40355e+006,356.36,0.8,0.8,0.8
512878,5.40405e+006,388.5,0.8,0.8,0.8
513131,5.40376e+006,325.63,0.8,0.8,0.8
512969,5.4038e+006,356.61,0.8,0.8,0.8
512623,5.4039e+006,409.44,0.8,0.8,0.8
512400,5.40367e+006,326.42,0.8,0.8,0.8
512732,5.40384e+006,395.59,0.8,0.8,0.8
512895,5.4039e+006,373.22,0.8,0.8,0.8
512434,5.40363e+006,328.31,0.8,0.8,0.8
512770,5.40366e+006,334.61,0.8,0.8,0.8
512980,5.40403e+006,357.89,0.8,0.8,0.8
512936,5.40399e+006,371.63,0.8,0.8,0.8
512755,5.40384e+006,394.48,0.8,0.8,0.8
512856,5.40356e+006,302.78,0.8,0.8,0.8
512334,5.40405e+006,392.68,0.8,0.8,0.8
512654,5.40404e+006,400.56,0.8,0.8,0.8
512967,5.40353e+006,311.29,0.8,0.8,0.8
512270,5.40359e+006,335.13,0.8,0.8,0.8
512454,5.40374e+006,339,0.8,0.8,0.8
512813,5.40404e+006,399.23,0.8,0.8,0.8
512163,5.4036e+006,332.99,0.8,0.8,0.8
512664,5.40387e+006,402.52,0.8,0.8,0.8
512482,5.40344e+006,310.33,0.8,0.8,0.8
513048,5.40363e+006,298.35,0.8,0.8,0.8
512967,5.40359e+006,298.61,0.8,0.8,0.8
512651,5.40353e+006,323.49,0.8,0.8,0.8
512090,5.40376e+006,342.41,0.8,0.8,0.8
512377,5.40405e+006,404.44,0.8,0.8,0.8
512224,5.40384e+006,339.19,0.8,0.8,0.8
512532,5.40405e+006,399.6,0.8,0.8,0.8
512550,5.40349e+006,326.06,0.8,0.8,0.8
513030,5.40391e+006,353.25,0.8,0.8,0.8
512967,5.40407e+006,371.31,0.8,0.8,0.8
512086,5.40364e+006,337.92,0.8,0.8,0.8
512707,5.40358e+006,332.46,0.8,0.8,0.8
512763,5.40374e+006,368.02,0.8,0.8,0.8
512446,5.40397e+006,378.59,0.8,0.8,0.8
512434,5.40341e+006,313.44,0.8,0.8,0.8
512279,5.40371e+006,351.4,0.8,0.8,0.8
513140,5.40343e+006,304.62,0.8,0.8,0.8
512854,5.40409e+006,390.46,0.8,0.8,0.8
512597,5.40379e+006,386.11,0.8,0.8,0.8
512369,5.40377e+006,349.34,0.8,0.8,0.8
512538,5.40378e+006,386.52,0.8,0.8,0.8
512769,5.40356e+006,302.35,0.8,0.8,0.8
512433,5.40369e+006,325.1,0.8,0.8,0.8
513059,5.40352e+006,311.71,0.8,0.8,0.8
512812,5.40404e+006,398.57,0.8,0.8,0.8
512215,5.40402e+006,368.12,0.8,0.8,0.8
512264,5.40351e+006,334.47,0.8,0.8,0.8
512802,5.40368e+006,331.88,0.8,0.8,0.8
512466,5.40389e+006,380.67,0.8,0.8,0.8
512479,5.40389e+006,379.82,0.8,0.8,0.8
512866,5.40355e+006,301.62,0.8,0.8,0.8
512632,5.40405e+006,410.15,0.8,0.8,0.8
512755,5.40381e+006,392.47,0.8,0.8,0.8
512323,5.40395e+006,375.61,0.8,0.8,0.8
512870,5.4035e+006,315.8,0.8,0.8,0.8
512598,5.40371e+006,386.54,0.8,0.8,0.8
512542,5.40375e+006,378.08,0.8,0.8,0.8
512469,5.40356e+006,324.96,0.8,0.8,0.8
513038,5.40401e+006,352.69,0.8,0.8,0.8
513083,5.40402e+006,341.73,0.8,0.8,0.8
512663,5.4038e+006,386.59,0.8,0.8,0.8
512630,5.40374e+006,393.42,0.8,0.8,0.8
512703,5.4039e+006,401.88,0.8,0.8,0.8
512859,5.40392e+006,382.99,0.8,0.8,0.8
512580,5.40369e+006,372.47,0.8,0.8,0.8
512989,5.40368e+006,327.6,0.8,0.8,0.8
512574,5.40386e+006,388.3,0.8,0.8,0.8
512556,5.40395e+006,399.96,0.8,0.8,0.8
512772,5.40407e+006,396.99,0.8,0.8,0.8
512456,5.40383e+006,362.45,0.8,0.8,0.8
512836,5.40348e+006,323.82,0.8,0.8,0.8
512898,5.4034e+006,297.34,0.8,0.8,0.8
512165,5.40379e+006,337.04,0.8,0.8,0.8
512941,5.40404e+006,365.03,0.8,0.8,0.8
512895,5.40403e+006,384.57,0.8,0.8,0.8
512543,5.40386e+006,395.23,0.8,0.8,0.8
512590,5.404e+006,407.26,0.8,0.8,0.8
512890,5.40404e+006,382.25,0.8,0.8,0.8
512106,5.40347e+006,336.54,0.8,0.8,0.8
513040,5.40374e+006,323.52,0.8,0.8,0.8
513020,5.40374e+006,326.93,0.8,0.8,0.8
512511,5.40361e+006,333.96,0.8,0.8,0.8
512917,5.40387e+006,370.32,0.8,0.8,0.8
512389,5.40399e+006,374.25,0.8,0.8,0.8
512269,5.40382e+006,334.1,0.8,0.8,0.8
513112,5.40371e+006,304.54,0.8,0.8,0.8
513106,5.40406e+006,327.77,0.8,0.8,0.8
512174,5.40363e+006,332.93,0.8,0.8,0.8
512224,5.40375e+006,347.13,0.8,0.8,0.8
513097,5.40389e+006,327.53,0.8,0.8,0.8
512893,5.40374e+006,337.06,0.8,0.8,0.8
512900,5.40343e+006,312.29,0.8,0.8,0.8
512136,5.40375e+006,343.34,0.8,0.8,0.8
512630,5.4036e+006,346.98,0.8,0.8,0.8
512966,5.40404e+006,363.94,0.8,0.8,0.8
512932,5.40405e+006,376.61,0.8,0.8,0.8
512866,5.40374e+006,343.78,0.8,0.8,0.8
512395,5.40362e+006,332.59,0.8,0.8,0.8
512762,5.40356e+006,315.55,0.8,0.8,0.8
512791,5.4038e+006,392.84,0.8,0.8,0.8
512825,5.40406e+006,392.05,0.8,0.8,0.8
512478,5.4039e+006,385.52,0.8,0.8,0.8
512824,5.40356e+006,302.48,0.8,0.8,0.8
512849,5.40368e+006,325.58,0.8,0.8,0.8
512240,5.40355e+006,334.82,0.8,0.8,0.8
512841,5.40366e+006,322.93,0.8,0.8,0.8
512368,5.40365e+006,333.71,0.8,0.8,0.8
512232,5.40401e+006,372.84,0.8,0.8,0.8
512825,5.40346e+006,317.38,0.8,0.8,0.8
512690,5.40381e+006,395.91,0.8,0.8,0.8
512399,5.40357e+006,341.77,0.8,0.8,0.8
512728,5.40368e+006,355.8,0.8,0.8,0.8
512308,5.40392e+006,370.18,0.8,0.8,0.8
512895,5.40405e+006,388.57,0.8,0.8,0.8
512128,5.40362e+006,335.39,0.8,0.8,0.8
512807,5.4034e+006,316.55,0.8,0.8,0.8
512905,5.40408e+006,384.93,0.8,0.8,0.8
512427,5.40401e+006,387.42,0.8,0.8,0.8
512188,5.40375e+006,345.87,0.8,0.8,0.8
512975,5.40382e+006,353.63,0.8,0.8,0.8
512525,5.40406e+006,400.46,0.8,0.8,0.8
512359,5.404e+006,384.96,0.8,0.8,0.8
512105,5.40373e+006,346.97,0.8,0.8,0.8
513135,5.404e+006,336.14,0.8,0.8,0.8
512318,5.40341e+006,324.32,0.8,0.8,0.8
512552,5.40385e+006,395.97,0.8,0.8,0.8
512388,5.40401e+006,383.68,0.8,0.8,0.8
512691,5.4039e+006,407.9,0.8,0.8,0.8
512571,5.40388e+006,393.93,0.8,0.8,0.8
512126,5.40399e+006,356.74,0.8,0.8,0.8
512927,5.40403e+006,376.42,0.8,0.8,0.8
512693,5.40398e+006,414.05,0.8,0.8,0.8
512303,5.40375e+006,330.86,0.8,0.8,0.8
513012,5.40408e+006,349.39,0.8,0.8,0.8
513065,5.40408e+006,343.48,0.8,0.8,0.8
513026,5.40362e+006,298.44,0.8,0.8,0.8
512959,5.40363e+006,329.31,0.8,0.8,0.8
512110,5.4039e+006,341.5,0.8,0.8,0.8
512079,5.40394e+006,344.99,0.8,0.8,0.8
512241,5.4035e+006,333.34,0.8,0.8,0.8
512301,5.40404e+006,388.88,0.8,0.8,0.8
512948,5.4037e+006,326.1,0.8,0.8,0.8
512303,5.40398e+006,375.37,0.8,0.8,0.8
512708,5.40349e+006,306.55,0.8,0.8,0.8
513001,5.4036e+006,298.35,0.8,0.8,0.8
512778,5.40407e+006,409.72,0.8,0.8,0.8
512430,5.40352e+006,318.18,0.8,0.8,0.8
512956,5.40349e+006,312.49,0.8,0.8,0.8
513135,5.40363e+006,298.65,0.8,0.8,0.8
512530,5.40371e+006,363.73,0.8,0.8,0.8
512373,5.40399e+006,384.92,0.8,0.8,0.8
512597,5.40371e+006,383.89,0.8,0.8,0.8
513034,5.40342e+006,287.9,0.8,0.8,0.8
512601,5.40361e+006,348.25,0.8,0.8,0.8
512252,5.40356e+006,328.04,0.8,0.8,0.8
512106,5.40392e+006,351.4,0.8,0.8,0.8
512974,5.40392e+006,360.16,0.8,0.8,0.8
512423,5.40372e+006,342.98,0.8,0.8,0.8
513049,5.40348e+006,294.19,0.8,0.8,0.8
512430,5.40389e+006,361.99,0.8,0.8,0.8
512994,5.40347e+006,295.9,0.8,0.8,0.8
512717,5.40377e+006,389.45,0.8,0.8,0.8
512380,5.40398e+006,377.76,0.8,0.8,0.8
512152,5.40381e+006,337.56,0.8,0.8,0.8
512442,5.40341e+006,312.43,0.8,0.8,0.8
512844,5.40398e+006,397.33,0.8,0.8,0.8
513130,5.40398e+006,326.98,0.8,0.8,0.8
512539,5.40384e+006,390.6,0.8,0.8,0.8
512100,5.40372e+006,341.62,0.8,0.8,0.8
512212,5.40387e+006,348.46,0.8,0.8,0.8
512499,5.40375e+006,353.33,0.8,0.8,0.8
512996,5.40375e+006,335.78,0.8,0.8,0.8
512943,5.40389e+006,365,0.8,0.8,0.8
512086,5.40358e+006,335.69,0.8,0.8,0.8
512839,5.4035e+006,301.32,0.8,0.8,0.8
512339,5.40374e+006,329.65,0.8,0.8,0.8
512456,5.40366e+006,325.66,0.8,0.8,0.8
512795,5.40365e+006,328.6,0.8,0.8,0.8
512976,5.4035e+006,296.33,0.8,0.8,0.8
512756,5.40365e+006,342.63,0.8,0.8,0.8
512076,5.40365e+006,338.43,0.8,0.8,0.8
512300,5.40406e+006,392.4,0.8,0.8,0.8
512471,5.40357e+006,327.54,0.8,0.8,0.8
512646,5.40408e+006,403.04,0.8,0.8,0.8
512228,5.40379e+006,338.48,0.8,0.8,0.8
512415,5.40355e+006,322.63,0.8,0.8,0.8
512594,5.40378e+006,386.11,0.8,0.8,0.8
512993,5.40365e+006,312.38,0.8,0.8,0.8
512464,5.40396e+006,394.5,0.8,0.8,0.8
512221,5.40361e+006,330.36,0.8,0.8,0.8
512452,5.40397e+006,381.05,0.8,0.8,0.8
512593,5.40374e+006,392.12,0.8,0.8,0.8
512388,5.40364e+006,336.87,0.8,0.8,0.8
512085,5.40389e+006,348.16,0.8,0.8,0.8
512938,5.40387e+006,371.98,0.8,0.8,0.8
512823,5.40404e+006,389.29,0.8,0.8,0.8
512444,5.40406e+006,394.09,0.8,0.8,0.8
512908,5.40401e+006,372.91,0.8,0.8,0.8
512534,5.40342e+006,307.46,0.8,0.8,0.8
512953,5.40357e+006,316.92,0.8,0.8,0.8
512377,5.40368e+006,331.2,0.8,0.8,0.8
512231,5.40362e+006,339.63,0.8,0.8,0.8
512085,5.40381e+006,338.53,0.8,0.8,0.8
512677,5.40379e+006,387.34,0.8,0.8,0.8
512797,5.40356e+006,306.68,0.8,0.8,0.8
513007,5.40408e+006,348.38,0.8,0.8,0.8
512162,5.40362e+006,344.11,0.8,0.8,0.8
512979,5.40382e+006,353.36,0.8,0.8,0.8
512069,5.40368e+006,339.28,0.8,0.8,0.8
512420,5.4035e+006,317.97,0.8,0.8,0.8
512376,5.40378e+006,339.15,0.8,0.8,0.8
512404,5.40344e+006,314.75,0.8,0.8,0.8
513127,5.40405e+006,342.15,0.8,0.8,0.8
512967,5.4036e+006,306.69,0.8,0.8,0.8
512583,5.40408e+006,402.36,0.8,0.8,0.8
512715,5.4036e+006,333.32,0.8,0.8,0.8
512741,5.4036e+006,330.56,0.8,0.8,0.8
512130,5.40357e+006,344.24,0.8,0.8,0.8
512107,5.40387e+006,341.21,0.8,0.8,0.8
512895,5.40409e+006,397.69,0.8,0.8,0.8
512119,5.40387e+006,359.47,0.8,0.8,0.8
513066,5.40341e+006,294.06,0.8,0.8,0.8
512681,5.40353e+006,327.36,0.8,0.8,0.8
512128,5.40403e+006,350.18,0.8,0.8,0.8
512053,5.40368e+006,342.2,0.8,0.8,0.8
513073,5.40346e+006,305.03,0.8,0.8,0.8
512937,5.40405e+006,377.49,0.8,0.8,0.8
512875,5.404e+006,387.91,0.8,0.8,0.8
512102,5.4035e+006,344.2,0.8,0.8,0.8
512158,5.40371e+006,345.09,0.8,0.8,0.8
512486,5.40394e+006,388.34,0.8,0.8,0.8
512928,5.40374e+006,342.8,0.8,0.8,0.8
513061,5.40388e+006,343.24,0.8,0.8,0.8
513094,5.40395e+006,331.38,0.8,0.8,0.8
512495,5.40391e+006,388.29,0.8,0.8,0.8
512644,5.40349e+006,311.33,0.8,0.8,0.8
512403,5.40349e+006,316.7,0.8,0.8,0.8
512804,5.40388e+006,395.52,0.8,0.8,0.8
513122,5.40363e+006,323.58,0.8,0.8,0.8
512596,5.40372e+006,386.07,0.8,0.8,0.8
512215,5.4039e+006,341.82,0.8,0.8,0.8
512687,5.40365e+006,356.03,0.8,0.8,0.8
512296,5.40351e+006,326.83,0.8,0.8,0.8
512896,5.40367e+006,312.16,0.8,0.8,0.8
512666,5.40363e+006,348.35,0.8,0.8,0.8
512146,5.4037e+006,338.82,0.8,0.8,0.8
512061,5.40378e+006,355.43,0.8,0.8,0.8
512136,5.4039e+006,357.26,0.8,0.8,0.8
512322,5.40341e+006,317.33,0.8,0.8,0.8
512377,5.40383e+006,340.17,0.8,0.8,0.8
512984,5.40349e+006,312.93,0.8,0.8,0.8
512313,5.40343e+006,320.07,0.8,0.8,0.8
512307,5.40364e+006,341.93,0.8,0.8,0.8
513028,5.40365e+006,309.44,0.8,0.8,0.8
512187,5.4038e+006,342.29,0.8,0.8,0.8
512229,5.40385e+006,347,0.8,0.8,0.8
512474,5.40347e+006,325.16,0.8,0.8,0.8
512343,5.40408e+006,400.77,0.8,0.8,0.8
512381,5.4037e+006,345.48,0.8,0.8,0.8
512768,5.404e+006,395.62,0.8,0.8,0.8
512747,5.40366e+006,343.23,0.8,0.8,0.8
512446,5.40399e+006,379.47,0.8,0.8,0.8
512221,5.40406e+006,384.24,0.8,0.8,0.8
512474,5.40391e+006,383.38,0.8,0.8,0.8
513133,5.40381e+006,322.88,0.8,0.8,0.8
512095,5.40346e+006,321.99,0.8,0.8,0.8
512425,5.40366e+006,327.3,0.8,0.8,0.8
513048,5.40377e+006,330.78,0.8,0.8,0.8
512496,5.40397e+006,392.42,0.8,0.8,0.8
512334,5.40343e+006,334.96,0.8,0.8,0.8
512202,5.40388e+006,340.16,0.8,0.8,0.8
512864,5.40368e+006,323.35,0.8,0.8,0.8
512194,5.40407e+006,377.39,0.8,0.8,0.8
513142,5.40346e+006,293.2,0.8,0.8,0.8
513103,5.40347e+006,292.76,0.8,0.8,0.8
512611,5.40356e+006,327.69,0.8,0.8,0.8
512443,5.40376e+006,343.67,0.8,0.8,0.8
512098,5.40369e+006,348.76,0.8,0.8,0.8
512496,5.40369e+006,340.6,0.8,0.8,0.8
512910,5.40368e+006,315.34,0.8,0.8,0.8
512425,5.4035e+006,328.95,0.8,0.8,0.8
512279,5.40359e+006,326.47,0.8,0.8,0.8
513046,5.40376e+006,328.09,0.8,0.8,0.8
512175,5.40406e+006,373.11,0.8,0.8,0.8
512509,5.40408e+006,412.36,0.8,0.8,0.8
512246,5.40387e+006,341.6,0.8,0.8,0.8
512551,5.40366e+006,359.74,0.8,0.8,0.8
512178,5.4035e+006,332.83,0.8,0.8,0.8
513085,5.40349e+006,293.71,0.8,0.8,0.8
512536,5.40402e+006,410.6,0.8,0.8,0.8
512336,5.40394e+006,364.51,0.8,0.8,0.8
512388,5.4035e+006,317.79,0.8,0.8,0.8
512621,5.40409e+006,398.48,0.8,0.8,0.8
512517,5.40366e+006,339.66,0.8,0.8,0.8
512214,5.4039e+006,351.69,0.8,0.8,0.8
513078,5.40392e+006,346.85,0.8,0.8,0.8
512422,5.40355e+006,322.54,0.8,0.8,0.8
512314,5.40404e+006,395.1,0.8,0.8,0.8
512929,5.40406e+006,374.34,0.8,0.8,0.8
512672,5.40397e+006,417.35,0.8,0.8,0.8
513066,5.40361e+006,309.49,0.8,0.8,0.8
512230,5.40372e+006,351.3,0.8,0.8,0.8
513100,5.40377e+006,323.96,0.8,0.8,0.8
512154,5.40397e+006,355.62,0.8,0.8,0.8
512240,5.40399e+006,364.79,0.8,0.8,0.8
512432,5.40343e+006,312.65,0.8,0.8,0.8
512520,5.40392e+006,390.5,0.8,0.8,0.8
513007,5.40359e+006,297.99,0.8,0.8,0.8
512817,5.404e+006,401.72,0.8,0.8,0.8
513081,5.40382e+006,333.67,0.8,0.8,0.8
512995,5.40361e+006,298.53,0.8,0.8,0.8
512948,5.40361e+006,314.58,0.8,0.8,0.8
512954,5.40372e+006,333.12,0.8,0.8,0.8
512404,5.40375e+006,343.35,0.8,0.8,0.8
513077,5.4036e+006,297.4,0.8,0.8,0.8
512963,5.40399e+006,363.33,0.8,0.8,0.8
512677,5.40371e+006,378.14,0.8,0.8,0.8
512738,5.40354e+006,308.27,0.8,0.8,0.8
512245,5.40348e+006,333.27,0.8,0.8,0.8
512973,5.40405e+006,359.84,0.8,0.8,0.8
512086,5.40404e+006,352.26,0.8,0.8,0.8
512548,5.40381e+006,381.05,0.8,0.8,0.8
512158,5.40343e+006,321.41,0.8,0.8,0.8
512365,5.40404e+006,397.18,0.8,0.8,0.8
512587,5.40389e+006,402.04,0.8,0.8,0.8
512519,5.40402e+006,413.57,0.8,0.8,0.8
512725,5.40354e+006,315.25,0.8,0.8,0.8
512819,5.40375e+006,360.97,0.8,0.8,0.8
512649,5.40383e+006,386.83,0.8,0.8,0.8
512152,5.40407e+006,356.55,0.8,0.8,0.8
512746,5.40377e+006,385.12,0.8,0.8,0.8
512712,5.40368e+006,359.5,0.8,0.8,0.8
512477,5.40356e+006,336.26,0.8,0.8,0.8
512721,5.40403e+006,397.98,0.8,0.8,0.8
513084,5.40402e+006,335.6,0.8,0.8,0.8
512458,5.40373e+006,337.58,0.8,0.8,0.8
512759,5.40384e+006,392.95,0.8,0.8,0.8
512311,5.40388e+006,345.55,0.8,0.8,0.8
512153,5.40362e+006,346.74,0.8,0.8,0.8
512891,5.40355e+006,300.13,0.8,0.8,0.8
512981,5.40366e+006,307.75,0.8,0.8,0.8
513012,5.40382e+006,352.26,0.8,0.8,0.8
512247,5.40389e+006,345.81,0.8,0.8,0.8
512718,5.40402e+006,406.25,0.8,0.8,0.8
512634,5.40405e+006,400.88,0.8,0.8,0.8
512728,5.40341e+006,321.56,0.8,0.8,0.8
512286,5.40376e+006,331.26,0.8,0.8,0.8
512575,5.4037e+006,372.56,0.8,0.8,0.8
512755,5.4038e+006,390.29,0.8,0.8,0.8
512058,5.40351e+006,331.09,0.8,0.8,0.8
513047,5.40407e+006,340.31,0.8,0.8,0.8
513138,5.40351e+006,294.79,0.8,0.8,0.8
512204,5.40348e+006,345.13,0.8,0.8,0.8
512869,5.40354e+006,300.62,0.8,0.8,0.8
512156,5.40405e+006,356.93,0.8,0.8,0.8
512525,5.40371e+006,352.97,0.8,0.8,0.8
512777,5.40374e+006,367.78,0.8,0.8,0.8
513003,5.40383e+006,351.26,0.8,0.8,0.8
512732,5.40382e+006,398.32,0.8,0.8,0.8
512338,5.40361e+006,329.26,0.8,0.8,0.8
512150,5.40355e+006,341.6,0.8,0.8,0.8
512673,5.40382e+006,393.97,0.8,0.8,0.8
512070,5.4035e+006,331.54,0.8,0.8,0.8
512555,5.40405e+006,410.09,0.8,0.8,0.8
512927,5.4038e+006,362.95,0.8,0.8,0.8
512904,5.40356e+006,299.76,0.8,0.8,0.8
512452,5.40351e+006,316.6,0.8,0.8,0.8
512611,5.40355e+006,321.04,0.8,0.8,0.8
512823,5.40347e+006,316.97,0.8,0.8,0.8
512093,5.40361e+006,336.6,0.8,0.8,0.8
512841,5.40404e+006,394.77,0.8,0.8,0.8
512605,5.40378e+006,392.86,0.8,0.8,0.8
512765,5.4039e+006,397.08,0.8,0.8,0.8
513074,5.40356e+006,303.6,0.8,0.8,0.8
512735,5.40379e+006,390.18,0.8,0.8,0.8
512794,5.40352e+006,317.26,0.8,0.8,0.8
512705,5.4035e+006,307.03,0.8,0.8,0.8
512146,5.40388e+006,338.76,0.8,0.8,0.8
512480,5.40345e+006,321.38,0.8,0.8,0.8
512851,5.4034e+006,298.82,0.8,0.8,0.8
513054,5.40355e+006,312.6,0.8,0.8,0.8
512596,5.40398e+006,411.86,0.8,0.8,0.8
512469,5.40371e+006,334.45,0.8,0.8,0.8
512848,5.4038e+006,359.08,0.8,0.8,0.8
512806,5.40362e+006,325.56,0.8,0.8,0.8
512380,5.40351e+006,318.65,0.8,0.8,0.8
513132,5.40348e+006,293.55,0.8,0.8,0.8
512881,5.40381e+006,362.85,0.8,0.8,0.8
512139,5.40388e+006,350.21,0.8,0.8,0.8
512161,5.40347e+006,328.26,0.8,0.8,0.8
512211,5.40349e+006,334.61,0.8,0.8,0.8
512862,5.40363e+006,321.34,0.8,0.8,0.8
512521,5.40362e+006,336.22,0.8,0.8,0.8
512355,5.40342e+006,322.38,0.8,0.8,0.8
512327,5.40342e+006,333.89,0.8,0.8,0.8
512066,5.40369e+006,338.09,0.8,0.8,0.8
512998,5.40386e+006,357.35,0.8,0.8,0.8
512885,5.40397e+006,371.5,0.8,0.8,0.8
512722,5.40381e+006,398.81,0.8,0.8,0.8
513099,5.40376e+006,328.95,0.8,0.8,0.8
512896,5.40361e+006,304.95,0.8,0.8,0.8
512556,5.40389e+006,392.44,0.8,0.8,0.8
512520,5.40344e+006,307.97,0.8,0.8,0.8
513088,5.40379e+006,328.93,0.8,0.8,0.8
512114,5.40351e+006,345.64,0.8,0.8,0.8
512936,5.40402e+006,374.68,0.8,0.8,0.8
512270,5.4034e+006,324.18,0.8,0.8,0.8
512350,5.40384e+006,348.75,0.8,0.8,0.8
512249,5.40379e+006,335.43,0.8,0.8,0.8
512325,5.40402e+006,387.54,0.8,0.8,0.8
512619,5.40401e+006,402.84,0.8,0.8,0.8
512080,5.40399e+006,350.16,0.8,0.8,0.8
512255,5.4036e+006,334.26,0.8,0.8,0.8
512712,5.40386e+006,405.31,0.8,0.8,0.8
512534,5.40398e+006,400.5,0.8,0.8,0.8
512848,5.40358e+006,304.22,0.8,0.8,0.8
512853,5.40407e+006,398.24,0.8,0.8,0.8
513026,5.40398e+006,341.03,0.8,0.8,0.8
512375,5.40372e+006,327.07,0.8,0.8,0.8
512971,5.40347e+006,306.36,0.8,0.8,0.8
512312,5.40377e+006,339.34,0.8,0.8,0.8
512197,5.40395e+006,354.07,0.8,0.8,0.8
512161,5.40402e+006,355.69,0.8,0.8,0.8
512643,5.40366e+006,356.28,0.8,0.8,0.8
512914,5.40354e+006,317.06,0.8,0.8,0.8
512279,5.40352e+006,332.71,0.8,0.8,0.8
512399,5.40379e+006,334.58,0.8,0.8,0.8
512127,5.40352e+006,345.05,0.8,0.8,0.8
513040,5.40359e+006,297.43,0.8,0.8,0.8
512813,5.40393e+006,394.35,0.8,0.8,0.8
512257,5.40352e+006,341.22,0.8,0.8,0.8
513091,5.40403e+006,331.07,0.8,0.8,0.8
513104,5.40364e+006,317.97,0.8,0.8,0.8
512211,5.40361e+006,330.77,0.8,0.8,0.8
513028,5.4036e+006,298.14,0.8,0.8,0.8
512144,5.40348e+006,339.76,0.8,0.8,0.8
512685,5.40371e+006,376.1,0.8,0.8,0.8
512093,5.40392e+006,352.94,0.8,0.8,0.8
512221,5.40349e+006,333.95,0.8,0.8,0.8
512095,5.40347e+006,336.88,0.8,0.8,0.8
512952,5.40409e+006,375.71,0.8,0.8,0.8
512798,5.40375e+006,369.55,0.8,0.8,0.8
512563,5.40403e+006,414.74,0.8,0.8,0.8
512857,5.404e+006,388.78,0.8,0.8,0.8
512960,5.40393e+006,375.5,0.8,0.8,0.8
513064,5.40379e+006,332.83,0.8,0.8,0.8
512867,5.4035e+006,315.82,0.8,0.8,0.8
513033,5.40362e+006,298.39,0.8,0.8,0.8
512244,5.40379e+006,333.37,0.8,0.8,0.8
512572,5.40346e+006,317.2,0.8,0.8,0.8
512469,5.40349e+006,314.95,0.8,0.8,0.8
512648,5.4035e+006,309.35,0.8,0.8,0.8
512195,5.40365e+006,342.81,0.8,0.8,0.8
512686,5.40403e+006,412.82,0.8,0.8,0.8
512475,5.40401e+006,394.5,0.8,0.8,0.8
512379,5.40348e+006,330.77,0.8,0.8,0.8
512164,5.4039e+006,338.54,0.8,0.8,0.8
512109,5.40388e+006,355.76,0.8,0.8,0.8
512518,5.40367e+006,352.3,0.8,0.8,0.8
512842,5.4039e+006,378.55,0.8,0.8,0.8
512607,5.40407e+006,407.12,0.8,0.8,0.8
512115,5.40406e+006,362.63,0.8,0.8,0.8
512348,5.40392e+006,365.83,0.8,0.8,0.8
512255,5.40347e+006,329.51,0.8,0.8,0.8
512757,5.40374e+006,375.27,0.8,0.8,0.8
512229,5.4037e+006,332.53,0.8,0.8,0.8
512481,5.40366e+006,330.06,0.8,0.8,0.8
512178,5.40345e+006,328.36,0.8,0.8,0.8
512581,5.40398e+006,404.16,0.8,0.8,0.8
512650,5.40345e+006,324.36,0.8,0.8,0.8
512711,5.40373e+006,386.04,0.8,0.8,0.8
512647,5.4038e+006,393.84,0.8,0.8,0.8
512353,5.40394e+006,373.02,0.8,0.8,0.8
512166,5.40395e+006,344.66,0.8,0.8,0.8
512649,5.40379e+006,403.42,0.8,0.8,0.8
513040,5.40389e+006,345.82,0.8,0.8,0.8
512655,5.40345e+006,324.28,0.8,0.8,0.8
512607,5.40407e+006,410.4,0.8,0.8,0.8
512732,5.40386e+006,398.61,0.8,0.8,0.8
513062,5.40353e+006,295.38,0.8,0.8,0.8
512510,5.40343e+006,313.91,0.8,0.8,0.8
512371,5.40401e+006,383.04,0.8,0.8,0.8
512451,5.40384e+006,360.28,0.8,0.8,0.8
512485,5.40363e+006,334.07,0.8,0.8,0.8
512973,5.40348e+006,295.79,0.8,0.8,0.8
512240,5.4037e+006,347.68,0.8,0.8,0.8
512662,5.40347e+006,305.53,0.8,0.8,0.8
512094,5.40401e+006,362.73,0.8,0.8,0.8
512431,5.40376e+006,351.59,0.8,0.8,0.8
512955,5.40406e+006,365.09,0.8,0.8,0.8
512543,5.40402e+006,407.64,0.8,0.8,0.8
512199,5.40365e+006,342.93,0.8,0.8,0.8
513125,5.40399e+006,336.75,0.8,0.8,0.8
512171,5.40349e+006,332.45,0.8,0.8,0.8
512675,5.40383e+006,401.14,0.8,0.8,0.8
512408,5.40406e+006,404.44,0.8,0.8,0.8
512155,5.40395e+006,354.25,0.8,0.8,0.8
512250,5.40358e+006,340.75,0.8,0.8,0.8
512560,5.40398e+006,415.45,0.8,0.8,0.8
512249,5.40376e+006,340.63,0.8,0.8,0.8
512804,5.4039e+006,394.07,0.8,0.8,0.8
512275,5.40372e+006,331.82,0.8,0.8,0.8
512405,5.40352e+006,329.08,0.8,0.8,0.8
512503,5.4038e+006,361.94,0.8,0.8,0.8
512527,5.40371e+006,363.64,0.8,0.8,0.8
512478,5.40385e+006,371.57,0.8,0.8,0.8
512599,5.40369e+006,374.45,0.8,0.8,0.8
512615,5.40388e+006,399.28,0.8,0.8,0.8
512456,5.40373e+006,331.3,0.8,0.8,0.8
512182,5.40382e+006,339.6,0.8,0.8,0.8
512069,5.40341e+006,314.81,0.8,0.8,0.8
512743,5.40388e+006,406.2,0.8,0.8,0.8
512323,5.40371e+006,332.08,0.8,0.8,0.8
512779,5.40391e+006,396.12,0.8,0.8,0.8
512694,5.40402e+006,399.21,0.8,0.8,0.8
512640,5.40345e+006,307.29,0.8,0.8,0.8
512188,5.40385e+006,337.48,0.8,0.8,0.8
512198,5.40371e+006,335.72,0.8,0.8,0.8
512931,5.40355e+006,298.92,0.8,0.8,0.8
512132,5.40362e+006,351.36,0.8,0.8,0.8
513027,5.40381e+006,344.17,0.8,0.8,0.8
512361,5.40405e+006,398.97,0.8,0.8,0.8
512281,5.40375e+006,335.65,0.8,0.8,0.8
512373,5.40353e+006,325.43,0.8,0.8,0.8
512297,5.40383e+006,340.13,0.8,0.8,0.8
513079,5.40388e+006,340.69,0.8,0.8,0.8
512897,5.40403e+006,382.9,0.8,0.8,0.8
512487,5.40393e+006,391.61,0.8,0.8,0.8
512236,5.40384e+006,347.16,0.8,0.8,0.8
512307,5.4034e+006,317.55,0.8,0.8,0.8
512161,5.40361e+006,348.77,0.8,0.8,0.8
513033,5.40381e+006,343.49,0.8,0.8,0.8
513045,5.40376e+006,329.78,0.8,0.8,0.8
512376,5.40394e+006,376.22,0.8,0.8,0.8
512229,5.40388e+006,350.81,0.8,0.8,0.8
512498,5.40358e+006,324.67,0.8,0.8,0.8
512265,5.40376e+006,342.12,0.8,0.8,0.8
513030,5.40389e+006,346.1,0.8,0.8,0.8
512896,5.40343e+006,312.32,0.8,0.8,0.8
512054,5.40405e+006,358.55,0.8,0.8,0.8
512198,5.40357e+006,348.64,0.8,0.8,0.8
512251,5.40346e+006,338.33,0.8,0.8,0.8
512515,5.40361e+006,336.81,0.8,0.8,0.8
513019,5.40386e+006,354.91,0.8,0.8,0.8
512201,5.40345e+006,335.15,0.8,0.8,0.8
512871,5.40375e+006,345.42,0.8,0.8,0.8
512894,5.40399e+006,379.58,0.8,0.8,0.8
513000,5.40348e+006,295.21,0.8,0.8,0.8
512144,5.40387e+006,352.76,0.8,0.8,0.8
512349,5.4035e+006,323.6,0.8,0.8,0.8
512452,5.40366e+006,326.42,0.8,0.8,0.8
512319,5.40364e+006,330.43,0.8,0.8,0.8
512962,5.40357e+006,320.58,0.8,0.8,0.8
512560,5.40366e+006,348.26,0.8,0.8,0.8
512421,5.40357e+006,325.04,0.8,0.8,0.8
512592,5.40374e+006,386.93,0.8,0.8,0.8
512895,5.404e+006,377.68,0.8,0.8,0.8
513113,5.40355e+006,303.96,0.8,0.8,0.8
512608,5.40382e+006,396.3,0.8,0.8,0.8
512279,5.40363e+006,341.98,0.8,0.8,0.8
512826,5.40366e+006,322.89,0.8,0.8,0.8
512322,5.40346e+006,331.95,0.8,0.8,0.8
512753,5.40383e+006,395.6,0.8,0.8,0.8
512587,5.40387e+006,392.95,0.8,0.8,0.8
512455,5.40378e+006,351.96,0.8,0.8,0.8
512565,5.40373e+006,384.7,0.8,0.8,0.8
512617,5.4034e+006,312.24,0.8,0.8,0.8
512447,5.40351e+006,326.96,0.8,0.8,0.8
512643,5.40349e+006,311.33,0.8,0.8,0.8
512892,5.40384e+006,357.98,0.8,0.8,0.8
512106,5.40374e+006,341.32,0.8,0.8,0.8
512945,5.40375e+006,344.7,0.8,0.8,0.8
513095,5.40382e+006,341.08,0.8,0.8,0.8
512475,5.40394e+006,396.36,0.8,0.8,0.8
513063,5.4038e+006,336.41,0.8,0.8,0.8
512667,5.40369e+006,367.01,0.8,0.8,0.8
512818,5.40405e+006,390.86,0.8,0.8,0.8
513070,5.40399e+006,348.84,0.8,0.8,0.8
512287,5.40397e+006,373.59,0.8,0.8,0.8
512352,5.40375e+006,328.62,0.8,0.8,0.8
512161,5.40358e+006,333.01,0.8,0.8,0.8
512122,5.4038e+006,343.24,0.8,0.8,0.8
512598,5.40366e+006,353.21,0.8,0.8,0.8
512742,5.40372e+006,370.34,0.8,0.8,0.8
512305,5.40341e+006,321.11,0.8,0.8,0.8
512985,5.40376e+006,341.9,0.8,0.8,0.8
512086,5.40405e+006,360.23,0.8,0.8,0.8
513112,5.40395e+006,343.4,0.8,0.8,0.8
512807,5.4037e+006,349.45,0.8,0.8,0.8
512208,5.40342e+006,322.46,0.8,0.8,0.8
512724,5.40408e+006,406.34,0.8,0.8,0.8
512230,5.40398e+006,377.79,0.8,0.8,0.8
513068,5.40389e+006,347.13,0.8,0.8,0.8
512311,5.40359e+006,328.84,0.8,0.8,0.8
512779,5.40387e+006,398.72,0.8,0.8,0.8
512834,5.40344e+006,317.36,0.8,0.8,0.8
512426,5.40406e+006,397.17,0.8,0.8,0.8
512501,5.40404e+006,401.23,0.8,0.8,0.8
512698,5.40395e+006,413.92,0.8,0.8,0.8
513115,5.40371e+006,304.09,0.8,0.8,0.8
512324,5.40368e+006,331.33,0.8,0.8,0.8
512117,5.40361e+006,344.83,0.8,0.8,0.8
512816,5.40374e+006,367.94,0.8,0.8,0.8
512495,5.40344e+006,317.8,0.8,0.8,0.8
512200,5.40377e+006,342.14,0.8,0.8,0.8
512151,5.40399e+006,350.67,0.8,0.8,0.8
512813,5.40376e+006,372.37,0.8,0.8,0.8
512282,5.40382e+006,353.24,0.8,0.8,0.8
512912,5.40396e+006,367.01,0.8,0.8,0.8
512309,5.40391e+006,356.4,0.8,0.8,0.8
512911,5.40359e+006,318.81,0.8,0.8,0.8
512743,5.40407e+006,398.11,0.8,0.8,0.8
512883,5.40345e+006,312.78,0.8,0.8,0.8
512366,5.40408e+006,399.44,0.8,0.8,0.8
512923,5.40347e+006,298.05,0.8,0.8,0.8
513139,5.40378e+006,329.6,0.8,0.8,0.8
512464,5.40348e+006,314.62,0.8,0.8,0.8
512562,5.40361e+006,332.31,0.8,0.8,0.8
512693,5.40343e+006,338.15,0.8,0.8,0.8
512248,5.40341e+006,324.18,0.8,0.8,0.8
512903,5.40386e+006,367.94,0.8,0.8,0.8
512060,5.40383e+006,343.53,0.8,0.8,0.8
512126,5.40398e+006,347.22,0.8,0.8,0.8
513091,5.40388e+006,344.68,0.8,0.8,0.8
512837,5.40352e+006,301.24,0.8,0.8,0.8
512482,5.40357e+006,321.78,0.8,0.8,0.8
512733,5.40345e+006,340.56,0.8,0.8,0.8
512542,5.40353e+006,323.52,0.8,0.8,0.8
513006,5.4035e+006,320.47,0.8,0.8,0.8
513116,5.40375e+006,328.31,0.8,0.8,0.8
512939,5.40404e+006,376.67,0.8,0.8,0.8
512877,5.40347e+006,315.78,0.8,0.8,0.8
512241,5.40345e+006,324.45,0.8,0.8,0.8
513011,5.40364e+006,302.54,0.8,0.8,0.8
512758,5.4038e+006,398.45,0.8,0.8,0.8
512879,5.40354e+006,300.44,0.8,0.8,0.8
513134,5.40351e+006,301.77,0.8,0.8,0.8
512927,5.40371e+006,330.47,0.8,0.8,0.8
512863,5.40355e+006,302.26,0.8,0.8,0.8
513045,5.40408e+006,344.79,0.8,0.8,0.8
512423,5.40391e+006,363.01,0.8,0.8,0.8
513062,5.40382e+006,336,0.8,0.8,0.8
512885,5.40379e+006,353.16,0.8,0.8,0.8
513107,5.40353e+006,292.53,0.8,0.8,0.8
512912,5.40342e+006,297.86,0.8,0.8,0.8
512995,5.40353e+006,299.67,0.8,0.8,0.8
512843,5.40345e+006,320.09,0.8,0.8,0.8
512901,5.40396e+006,374.06,0.8,0.8,0.8
513054,5.40386e+006,337.75,0.8,0.8,0.8
512863,5.40399e+006,382.17,0.8,0.8,0.8
512135,5.40343e+006,333.14,0.8,0.8,0.8
512853,5.40371e+006,334.72,0.8,0.8,0.8
513124,5.40387e+006,337.05,0.8,0.8,0.8
512125,5.40341e+006,327.67,0.8,0.8,0.8
512068,5.40353e+006,338.66,0.8,0.8,0.8
512499,5.40389e+006,392.39,0.8,0.8,0.8
512819,5.40342e+006,302.83,0.8,0.8,0.8
512991,5.40385e+006,362.18,0.8,0.8,0.8
512126,5.40367e+006,338.71,0.8,0.8,0.8
512057,5.40359e+006,347.3,0.8,0.8,0.8
513062,5.40356e+006,307.24,0.8,0.8,0.8
512090,5.40352e+006,341.74,0.8,0.8,0.8
513020,5.40392e+006,363.53,0.8,0.8,0.8
512566,5.40365e+006,347.94,0.8,0.8,0.8
512841,5.40355e+006,320.11,0.8,0.8,0.8
512102,5.40403e+006,351.06,0.8,0.8,0.8
512227,5.40374e+006,332.88,0.8,0.8,0.8
512962,5.40353e+006,312.81,0.8,0.8,0.8
512316,5.40369e+006,348.44,0.8,0.8,0.8
512206,5.40355e+006,346.47,0.8,0.8,0.8
512841,5.40353e+006,301.23,0.8,0.8,0.8
512797,5.4036e+006,310.91,0.8,0.8,0.8
512539,5.40393e+006,403.06,0.8,0.8,0.8
512650,5.40376e+006,396.23,0.8,0.8,0.8
513094,5.4038e+006,328.22,0.8,0.8,0.8
513120,5.40354e+006,295.32,0.8,0.8,0.8
512149,5.40394e+006,349.5,0.8,0.8,0.8
512075,5.40387e+006,344.18,0.8,0.8,0.8
512479,5.40371e+006,339.57,0.8,0.8,0.8
512568,5.40343e+006,308.79,0.8,0.8,0.8
512792,5.40344e+006,322.65,0.8,0.8,0.8
512603,5.40407e+006,406.63,0.8,0.8,0.8
512959,5.40384e+006,362.95,0.8,0.8,0.8
512383,5.40365e+006,349.56,0.8,0.8,0.8
512372,5.40359e+006,326.51,0.8,0.8,0.8
512457,5.40399e+006,386.89,0.8,0.8,0.8
512087,5.40367e+006,352.53,0.8,0.8,0.8
512217,5.404e+006,372.3,0.8,0.8,0.8
512294,5.40405e+006,396.84,0.8,0.8,0.8
512361,5.4039e+006,349.1,0.8,0.8,0.8
512863,5.40353e+006,308.47,0.8,0.8,0.8
513113,5.40383e+006,328.82,0.8,0.8,0.8
512673,5.40372e+006,384.27,0.8,0.8,0.8
512746,5.40407e+006,398.34,0.8,0.8,0.8
512354,5.40369e+006,336.29,0.8,0.8,0.8
512830,5.40364e+006,325.94,0.8,0.8,0.8
512448,5.40367e+006,322.93,0.8,0.8,0.8
512771,5.40381e+006,398.74,0.8,0.8,0.8
512661,5.40401e+006,410.63,0.8,0.8,0.8
512668,5.40345e+006,305.64,0.8,0.8,0.8
512246,5.40357e+006,327.77,0.8,0.8,0.8
512858,5.40364e+006,325.96,0.8,0.8,0.8
512433,5.40391e+006,366.3,0.8,0.8,0.8
513082,5.40363e+006,318.09,0.8,0.8,0.8
513084,5.40379e+006,332.7,0.8,0.8,0.8
512249,5.40346e+006,335.92,0.8,0.8,0.8
512489,5.40358e+006,325.03,0.8,0.8,0.8
512198,5.40343e+006,321.06,0.8,0.8,0.8
512368,5.4037e+006,334.7,0.8,0.8,0.8
512866,5.40369e+006,322.48,0.8,0.8,0.8
512649,5.40381e+006,388.84,0.8,0.8,0.8
512730,5.40364e+006,344.43,0.8,0.8,0.8
512952,5.40381e+006,356.48,0.8,0.8,0.8
512437,5.40388e+006,365.02,0.8,0.8,0.8
512512,5.40365e+006,331.66,0.8,0.8,0.8
512799,5.40343e+006,322.67,0.8,0.8,0.8
512271,5.40367e+006,331.22,0.8,0.8,0.8
512800,5.40382e+006,386.92,0.8,0.8,0.8
512268,5.40357e+006,341.29,0.8,0.8,0.8
512830,5.40365e+006,326.49,0.8,0.8,0.8
512291,5.40398e+006,369.46,0.8,0.8,0.8
512707,5.40404e+006,402.45,0.8,0.8,0.8
512413,5.40366e+006,330.19,0.8,0.8,0.8
512664,5.40383e+006,391.27,0.8,0.8,0.8
512533,5.40395e+006,396.32,0.8,0.8,0.8
512411,5.40354e+006,320.74,0.8,0.8,0.8
512384,5.40364e+006,350.06,0.8,0.8,0.8
512946,5.4039e+006,364.51,0.8,0.8,0.8
512348,5.40392e+006,365.82,0.8,0.8,0.8
512257,5.40404e+006,384.76,0.8,0.8,0.8
512706,5.40361e+006,333.68,0.8,0.8,0.8
512413,5.40348e+006,328.62,0.8,0.8,0.8
512815,5.40388e+006,392.79,0.8,0.8,0.8
512648,5.40362e+006,352.61,0.8,0.8,0.8
512265,5.40396e+006,368.11,0.8,0.8,0.8
512594,5.40359e+006,339.45,0.8,0.8,0.8
512606,5.40376e+006,384.87,0.8,0.8,0.8
512989,5.40393e+006,366.3,0.8,0.8,0.8
512376,5.40366e+006,328.86,0.8,0.8,0.8
512117,5.40406e+006,353.05,0.8,0.8,0.8
512069,5.40395e+006,349.23,0.8,0.8,0.8
513144,5.40352e+006,294.72,0.8,0.8,0.8
512909,5.40384e+006,357.13,0.8,0.8,0.8
512860,5.40407e+006,392.12,0.8,0.8,0.8
513025,5.40397e+006,355.7,0.8,0.8,0.8
512593,5.40355e+006,333.01,0.8,0.8,0.8
512659,5.40343e+006,305.85,0.8,0.8,0.8
512498,5.40373e+006,349.59,0.8,0.8,0.8
512462,5.40403e+006,399.33,0.8,0.8,0.8
512392,5.40384e+006,345.16,0.8,0.8,0.8
512619,5.40346e+006,324.9,0.8,0.8,0.8
512887,5.40395e+006,371.25,0.8,0.8,0.8
512083,5.40346e+006,332.47,0.8,0.8,0.8
512510,5.40357e+006,316.61,0.8,0.8,0.8
512376,5.40389e+006,346.72,0.8,0.8,0.8
512435,5.40401e+006,387.43,0.8,0.8,0.8
512885,5.40395e+006,378.91,0.8,0.8,0.8
513141,5.40387e+006,328.5,0.8,0.8,0.8
512322,5.40408e+006,393.6,0.8,0.8,0.8
513145,5.40367e+006,321.37,0.8,0.8,0.8
512684,5.4036e+006,332.19,0.8,0.8,0.8
513062,5.40353e+006,311.57,0.8,0.8,0.8
512822,5.40387e+006,387.03,0.8,0.8,0.8
512146,5.40353e+006,334.15,0.8,0.8,0.8
512957,5.40367e+006,314.11,0.8,0.8,0.8
512168,5.40379e+006,345.15,0.8,0.8,0.8
512645,5.40388e+006,408.55,0.8,0.8,0.8
512765,5.40399e+006,395.65,0.8,0.8,0.8
512609,5.40356e+006,328.06,0.8,0.8,0.8
512891,5.40385e+006,367.42,0.8,0.8,0.8
512979,5.40366e+006,312.39,0.8,0.8,0.8
512913,5.40345e+006,315.63,0.8,0.8,0.8
512421,5.40371e+006,326.2,0.8,0.8,0.8
512135,5.4039e+006,339.92,0.8,0.8,0.8
512857,5.40404e+006,384.58,0.8,0.8,0.8
512768,5.40379e+006,396.41,0.8,0.8,0.8
513150,5.40341e+006,302.5,0.8,0.8,0.8
512762,5.40398e+006,405.09,0.8,0.8,0.8
512482,5.40398e+006,390.47,0.8,0.8,0.8
512833,5.40376e+006,368.08,0.8,0.8,0.8
512173,5.40347e+006,337.88,0.8,0.8,0.8
513013,5.40386e+006,348.77,0.8,0.8,0.8
512433,5.40347e+006,317.48,0.8,0.8,0.8
512822,5.40357e+006,303.89,0.8,0.8,0.8
512586,5.40404e+006,410.29,0.8,0.8,0.8
512669,5.40358e+006,331.84,0.8,0.8,0.8
512929,5.40355e+006,307.01,0.8,0.8,0.8
513100,5.40383e+006,329.42,0.8,0.8,0.8
512684,5.40407e+006,407.28,0.8,0.8,0.8
512779,5.40347e+006,302.75,0.8,0.8,0.8
512239,5.40408e+006,396.73,0.8,0.8,0.8
513020,5.40384e+006,349.57,0.8,0.8,0.8
512162,5.4038e+006,351.15,0.8,0.8,0.8
512205,5.40367e+006,340.67,0.8,0.8,0.8
512988,5.404e+006,351.68,0.8,0.8,0.8
512531,5.4039e+006,390.1,0.8,0.8,0.8
512060,5.40341e+006,314.63,0.8,0.8,0.8
512122,5.40358e+006,333.27,0.8,0.8,0.8
512760,5.40396e+006,403.73,0.8,0.8,0.8
512626,5.4037e+006,374.87,0.8,0.8,0.8
512706,5.40369e+006,370.71,0.8,0.8,0.8
512519,5.40384e+006,383.79,0.8,0.8,0.8
512672,5.40343e+006,305.85,0.8,0.8,0.8
512361,5.40363e+006,331.98,0.8,0.8,0.8
513076,5.40354e+006,299.48,0.8,0.8,0.8
512525,5.40352e+006,321.78,0.8,0.8,0.8
512300,5.40377e+006,340.98,0.8,0.8,0.8
512704,5.40353e+006,315.55,0.8,0.8,0.8
512501,5.404e+006,408.25,0.8,0.8,0.8
513073,5.40365e+006,298.91,0.8,0.8,0.8
512579,5.4039e+006,397.77,0.8,0.8,0.8
512724,5.40379e+006,399.5,0.8,0.8,0.8
512798,5.40389e+006,402.78,0.8,0.8,0.8
512996,5.40359e+006,298.06,0.8,0.8,0.8
512453,5.40386e+006,364.99,0.8,0.8,0.8
513013,5.4037e+006,319.45,0.8,0.8,0.8
512405,5.4039e+006,352.87,0.8,0.8,0.8
512630,5.40354e+006,330.08,0.8,0.8,0.8
512390,5.40344e+006,332.8,0.8,0.8,0.8
512804,5.40343e+006,322.51,0.8,0.8,0.8
512088,5.4038e+006,338.76,0.8,0.8,0.8
512226,5.40357e+006,344.26,0.8,0.8,0.8
512104,5.40393e+006,355.99,0.8,0.8,0.8
512320,5.40379e+006,338.42,0.8,0.8,0.8
512274,5.40372e+006,331.49,0.8,0.8,0.8
512520,5.40383e+006,388.27,0.8,0.8,0.8
512992,5.40376e+006,343.42,0.8,0.8,0.8
512803,5.40346e+006,302.26,0.8,0.8,0.8
512462,5.40377e+006,352.22,0.8,0.8,0.8
513135,5.40397e+006,338.27,0.8,0.8,0.8
512203,5.40367e+006,343.42,0.8,0.8,0.8
512789,5.40406e+006,392.31,0.8,0.8,0.8
512552,5.40387e+006,389.61,0.8,0.8,0.8
512325,5.404e+006,381.78,0.8,0.8,0.8
513075,5.40382e+006,338.25,0.8,0.8,0.8
512277,5.40403e+006,384.09,0.8,0.8,0.8
512788,5.40342e+006,302.37,0.8,0.8,0.8
512352,5.40371e+006,329.86,0.8,0.8,0.8
512781,5.40399e+006,396.49,0.8,0.8,0.8
512513,5.40354e+006,323.1,0.8,0.8,0.8
512910,5.40366e+006,294.94,0.8,0.8,0.8
512596,5.40398e+006,415.47,0.8,0.8,0.8
512636,5.40376e+006,394.86,0.8,0.8,0.8
512936,5.40386e+006,363.69,0.8,0.8,0.8
512572,5.40392e+006,397.42,0.8,0.8,0.8
512951,5.40354e+006,301.35,0.8,0.8,0.8
512503,5.40368e+006,343.58,0.8,0.8,0.8
512427,5.40398e+006,371.48,0.8,0.8,0.8
512255,5.40365e+006,342.32,0.8,0.8,0.8
512564,5.4039e+006,402.92,0.8,0.8,0.8
512853,5.40368e+006,326.82,0.8,0.8,0.8
512430,5.40375e+006,340.58,0.8,0.8,0.8
512852,5.40364e+006,311.73,0.8,0.8,0.8
512376,5.40343e+006,319.8,0.8,0.8,0.8
512461,5.40346e+006,325.3,0.8,0.8,0.8
512902,5.40343e+006,300.27,0.8,0.8,0.8
512893,5.40363e+006,325.94,0.8,0.8,0.8
512668,5.40354e+006,323.29,0.8,0.8,0.8
513133,5.40406e+006,339.47,0.8,0.8,0.8
513108,5.40371e+006,304.36,0.8,0.8,0.8
512993,5.40355e+006,320.51,0.8,0.8,0.8
512318,5.4039e+006,356.9,0.8,0.8,0.8
512692,5.40377e+006,388.77,0.8,0.8,0.8
513061,5.40402e+006,336.09,0.8,0.8,0.8
512930,5.40377e+006,352.7,0.8,0.8,0.8
512689,5.40347e+006,315.13,0.8,0.8,0.8
512612,5.40358e+006,329.5,0.8,0.8,0.8
512154,5.40371e+006,353.16,0.8,0.8,0.8
512934,5.40378e+006,355.38,0.8,0.8,0.8
513077,5.40361e+006,297.13,0.8,0.8,0.8
512442,5.40374e+006,334.22,0.8,0.8,0.8
512806,5.40401e+006,399.99,0.8,0.8,0.8
512763,5.40406e+006,393.53,0.8,0.8,0.8
512800,5.40382e+006,388.44,0.8,0.8,0.8
512102,5.40345e+006,333.9,0.8,0.8,0.8
512989,5.40386e+006,360.01,0.8,0.8,0.8
512893,5.40358e+006,318.39,0.8,0.8,0.8
512765,5.40356e+006,306.02,0.8,0.8,0.8
512929,5.40354e+006,315.17,0.8,0.8,0.8
512174,5.40356e+006,346.88,0.8,0.8,0.8
512297,5.40345e+006,334.19,0.8,0.8,0.8
512201,5.40395e+006,356.72,0.8,0.8,0.8
512788,5.40375e+006,373.07,0.8,0.8,0.8
512489,5.40359e+006,319.17,0.8,0.8,0.8
512286,5.40366e+006,340.31,0.8,0.8,0.8
512826,5.40406e+006,389.32,0.8,0.8,0.8
512450,5.4035e+006,315.41,0.8,0.8,0.8
512767,5.40385e+006,398.07,0.8,0.8,0.8
512856,5.40402e+006,385.28,0.8,0.8,0.8
512429,5.40358e+006,322.96,0.8,0.8,0.8
512945,5.40348e+006,302.42,0.8,0.8,0.8
512239,5.40406e+006,389.26,0.8,0.8,0.8
512465,5.40392e+006,386.7,0.8,0.8,0.8
512681,5.40356e+006,334.73,0.8,0.8,0.8
512465,5.40395e+006,392.22,0.8,0.8,0.8
512652,5.40346e+006,316.74,0.8,0.8,0.8
512252,5.40376e+006,332.26,0.8,0.8,0.8
512331,5.40361e+006,335.41,0.8,0.8,0.8
512428,5.40375e+006,343.77,0.8,0.8,0.8
513141,5.40362e+006,303.72,0.8,0.8,0.8
512464,5.40344e+006,327.83,0.8,0.8,0.8
512270,5.40389e+006,351.4,0.8,0.8,0.8
512986,5.40353e+006,306.18,0.8,0.8,0.8
512609,5.40362e+006,351.52,0.8,0.8,0.8
512976,5.40354e+006,299.27,0.8,0.8,0.8
512979,5.40354e+006,300.46,0.8,0.8,0.8
512574,5.40361e+006,345.07,0.8,0.8,0.8
512058,5.40373e+006,339.55,0.8,0.8,0.8
513014,5.40372e+006,322.98,0.8,0.8,0.8
512551,5.40358e+006,335.07,0.8,0.8,0.8
512467,5.40363e+006,321.35,0.8,0.8,0.8
513006,5.40357e+006,303.55,0.8,0.8,0.8
513054,5.40351e+006,306.22,0.8,0.8,0.8
513068,5.40363e+006,298.57,0.8,0.8,0.8
513136,5.4039e+006,326.17,0.8,0.8,0.8
512747,5.40367e+006,352.08,0.8,0.8,0.8
512738,5.404e+006,398.56,0.8,0.8,0.8
512687,5.40354e+006,334.69,0.8,0.8,0.8
512763,5.40376e+006,383.17,0.8,0.8,0.8
512293,5.40369e+006,336.82,0.8,0.8,0.8
512593,5.40361e+006,341.44,0.8,0.8,0.8
512879,5.40398e+006,374.74,0.8,0.8,0.8
512773,5.40348e+006,302.86,0.8,0.8,0.8
512806,5.40377e+006,381.11,0.8,0.8,0.8
512886,5.40391e+006,381.22,0.8,0.8,0.8
512421,5.40379e+006,341.31,0.8,0.8,0.8
512953,5.40382e+006,355.25,0.8,0.8,0.8
512129,5.40404e+006,350.4,0.8,0.8,0.8
512821,5.40359e+006,322.4,0.8,0.8,0.8
512711,5.40399e+006,405.01,0.8,0.8,0.8
512797,5.4041e+006,398.64,0.8,0.8,0.8
512054,5.40402e+006,363.94,0.8,0.8,0.8
512537,5.4037e+006,368.12,0.8,0.8,0.8
512885,5.40392e+006,378.73,0.8,0.8,0.8
512697,5.40355e+006,322.68,0.8,0.8,0.8
512923,5.404e+006,378.43,0.8,0.8,0.8
512775,5.40396e+006,398.47,0.8,0.8,0.8
512601,5.40388e+006,402.06,0.8,0.8,0.8
512307,5.40355e+006,334.23,0.8,0.8,0.8
512141,5.40344e+006,328.15,0.8,0.8,0.8
513062,5.40349e+006,294,0.8,0.8,0.8
513064,5.40384e+006,341.8,0.8,0.8,0.8
512173,5.40377e+006,344.59,0.8,0.8,0.8
512093,5.40361e+006,348.76,0.8,0.8,0.8
512225,5.40369e+006,331.09,0.8,0.8,0.8
512415,5.40353e+006,323.29,0.8,0.8,0.8
512632,5.40352e+006,324.03,0.8,0.8,0.8
512403,5.40375e+006,326.14,0.8,0.8,0.8
512242,5.40361e+006,333.15,0.8,0.8,0.8
512943,5.40361e+006,318.76,0.8,0.8,0.8
512819,5.40349e+006,301.29,0.8,0.8,0.8
512721,5.40404e+006,403.66,0.8,0.8,0.8
512145,5.40359e+006,341.99,0.8,0.8,0.8
512798,5.40368e+006,347.52,0.8,0.8,0.8
513104,5.40378e+006,324.35,0.8,0.8,0.8
512490,5.40378e+006,359.06,0.8,0.8,0.8
513089,5.40344e+006,293.76,0.8,0.8,0.8
512787,5.40369e+006,342.56,0.8,0.8,0.8
513103,5.40343e+006,293.71,0.8,0.8,0.8
512737,5.40349e+006,303.73,0.8,0.8,0.8
513026,5.40367e+006,309.18,0.8,0.8,0.8
512768,5.40357e+006,311.86,0.8,0.8,0.8
512581,5.40371e+006,383.28,0.8,0.8,0.8
512266,5.4034e+006,325.01,0.8,0.8,0.8
512717,5.40398e+006,398.01,0.8,0.8,0.8
512863,5.40398e+006,380.7,0.8,0.8,0.8
512528,5.40396e+006,396.21,0.8,0.8,0.8
512640,5.40364e+006,348.9,0.8,0.8,0.8
512197,5.40343e+006,329.99,0.8,0.8,0.8
512353,5.40389e+006,347.88,0.8,0.8,0.8
512110,5.40388e+006,354.74,0.8,0.8,0.8
512084,5.40356e+006,343.16,0.8,0.8,0.8
512865,5.40372e+006,337.38,0.8,0.8,0.8
512912,5.40401e+006,374.91,0.8,0.8,0.8
512738,5.40372e+006,375.37,0.8,0.8,0.8
512780,5.40387e+006,403.85,0.8,0.8,0.8
513126,5.40398e+006,328.39,0.8,0.8,0.8
512786,5.40401e+006,401.52,0.8,0.8,0.8
512337,5.40388e+006,345.15,0.8,0.8,0.8
512597,5.40385e+006,395.43,0.8,0.8,0.8
512495,5.40355e+006,321.96,0.8,0.8,0.8
512229,5.40386e+006,336.98,0.8,0.8,0.8
512794,5.40398e+006,399.12,0.8,0.8,0.8
512241,5.40404e+006,387.55,0.8,0.8,0.8
512367,5.40394e+006,372.98,0.8,0.8,0.8
512749,5.40344e+006,335.95,0.8,0.8,0.8
512610,5.40358e+006,332.79,0.8,0.8,0.8
512113,5.4039e+006,341.2,0.8,0.8,0.8
512699,5.40398e+006,414.2,0.8,0.8,0.8
512464,5.40343e+006,320.01,0.8,0.8,0.8
513092,5.40383e+006,331.7,0.8,0.8,0.8
512736,5.4034e+006,318.63,0.8,0.8,0.8
512462,5.40385e+006,368.76,0.8,0.8,0.8
512093,5.40367e+006,347.87,0.8,0.8,0.8
512760,5.40367e+006,343.83,0.8,0.8,0.8
512887,5.4039e+006,371.82,0.8,0.8,0.8
512277,5.40384e+006,335.94,0.8,0.8,0.8
512815,5.40367e+006,326.66,0.8,0.8,0.8
513031,5.4035e+006,294.6,0.8,0.8,0.8
512647,5.40355e+006,327.5,0.8,0.8,0.8
512781,5.40358e+006,314.66,0.8,0.8,0.8
512373,5.40385e+006,345.56,0.8,0.8,0.8
512793,5.40389e+006,403.26,0.8,0.8,0.8
512950,5.4036e+006,299.89,0.8,0.8,0.8
512389,5.40377e+006,337.14,0.8,0.8,0.8
512194,5.40363e+006,345.83,0.8,0.8,0.8
512548,5.40408e+006,399.17,0.8,0.8,0.8
512600,5.40389e+006,410.88,0.8,0.8,0.8
512639,5.40357e+006,335.69,0.8,0.8,0.8
512307,5.40383e+006,336.99,0.8,0.8,0.8
512764,5.40352e+006,304.36,0.8,0.8,0.8
512987,5.40402e+006,360.05,0.8,0.8,0.8
512204,5.40342e+006,322.19,0.8,0.8,0.8
512414,5.40348e+006,326.91,0.8,0.8,0.8
512778,5.40348e+006,302.86,0.8,0.8,0.8
512169,5.40399e+006,349.37,0.8,0.8,0.8
512309,5.40407e+006,400.26,0.8,0.8,0.8
512624,5.40374e+006,395.89,0.8,0.8,0.8
512188,5.4037e+006,350.36,0.8,0.8,0.8
512759,5.40355e+006,305.9,0.8,0.8,0.8
512844,5.40405e+006,387.33,0.8,0.8,0.8
512257,5.40388e+006,342.31,0.8,0.8,0.8
513032,5.40364e+006,305.21,0.8,0.8,0.8
512253,5.40406e+006,393.95,0.8,0.8,0.8
512955,5.40359e+006,308.02,0.8,0.8,0.8
512687,5.40353e+006,317.18,0.8,0.8,0.8
512124,5.40377e+006,336.77,0.8,0.8,0.8
512910,5.40404e+006,377.12,0.8,0.8,0.8
512718,5.40362e+006,335.31,0.8,0.8,0.8
513043,5.40394e+006,342.28,0.8,0.8,0.8
512195,5.40407e+006,380.03,0.8,0.8,0.8
512620,5.40365e+006,357.98,0.8,0.8,0.8
512964,5.40375e+006,344.66,0.8,0.8,0.8
513104,5.4037e+006,315.96,0.8,0.8,0.8
512413,5.40395e+006,367.51,0.8,0.8,0.8
512765,5.40378e+006,386.5,0.8,0.8,0.8
512574,5.4037e+006,372.41,0.8,0.8,0.8
512072,5.40376e+006,342.56,0.8,0.8,0.8
512647,5.40367e+006,358.49,0.8,0.8,0.8
512526,5.40373e+006,363.24,0.8,0.8,0.8
512431,5.40393e+006,369.47,0.8,0.8,0.8
512338,5.40383e+006,345.7,0.8,0.8,0.8
513028,5.40384e+006,353.01,0.8,0.8,0.8
512312,5.40354e+006,330.48,0.8,0.8,0.8
512147,5.40371e+006,349.09,0.8,0.8,0.8
512919,5.40372e+006,334.72,0.8,0.8,0.8
512132,5.40363e+006,340.44,0.8,0.8,0.8
