x,y,z,r,g,b
512458,5.40328e+006,306.04,0.8,0.8,0.8
512379,5.40313e+006,316.79,0.8,0.8,0.8
512176,5.40324e+006,316.81,0.8,0.8,0.8
512048,5.40316e+006,318.22,0.8,0.8,0.8
512284,5.40344e+006,323.2,0.8,0.8,0.8
512073,5.40336e+006,322.12,0.8,0.8,0.8
512341,5.40329e+006,308.97,0.8,0.8,0.8
512086,5.40343e+006,331.59,0.8,0.8,0.8
512219,5.40345e+006,334.73,0.8,0.8,0.8
512111,5.40331e+006,319,0.8,0.8,0.8
512444,5.40322e+006,316.65,0.8,0.8,0.8
512285,5.40323e+006,318.63,0.8,0.8,0.8
512076,5.40326e+006,324.26,0.8,0.8,0.8
512075,5.40323e+006,326.54,0.8,0.8,0.8
512240,5.40313e+006,316.86,0.8,0.8,0.8
512115,5.40327e+006,311.46,0.8,0.8,0.8
512340,5.40326e+006,312.28,0.8,0.8,0.8
512517,5.40344e+006,308.01,0.8,0.8,0.8
512165,5.40331e+006,311.45,0.8,0.8,0.8
512432,5.40342e+006,313.61,0.8,0.8,0.8
512438,5.40324e+006,305.13,0.8,0.8,0.8
512292,5.40328e+006,309.65,0.8,0.8,0.8
512442,5.40316e+006,321.68,0.8,0.8,0.8
512408,5.4032e+006,323.74,0.8,0.8,0.8
512112,5.40326e+006,311.46,0.8,0.8,0.8
512216,5.40314e+006,318.34,0.8,0.8,0.8
512341,5.40336e+006,328.51,0.8,0.8,0.8
512435,5.40347e+006,315.39,0.8,0.8,0.8
512344,5.40325e+006,308.82,0.8,0.8,0.8
512086,5.40315e+006,314.07,0.8,0.8,0.8
512255,5.40337e+006,312.19,0.8,0.8,0.8
512065,5.40316e+006,320.29,0.8,0.8,0.8
512099,5.40329e+006,311.37,0.8,0.8,0.8
512374,5.40332e+006,315.5,0.8,0.8,0.8
512461,5.40316e+006,307.39,0.8,0.8,0.8
512446,5.4033e+006,315.84,0.8,0.8,0.8
512056,5.40334e+006,312.61,0.8,0.8,0.8
512032,5.40343e+006,315.66,0.8,0.8,0.8
512542,5.40349e+006,332.57,0.8,0.8,0.8
512088,5.40314e+006,320.52,0.8,0.8,0.8
512195,5.40347e+006,328.36,0.8,0.8,0.8
512084,5.40338e+006,330.01,0.8,0.8,0.8
512409,5.40318e+006,306.26,0.8,0.8,0.8
512318,5.4035e+006,326.08,0.8,0.8,0.8
512125,5.40334e+006,312.19,0.8,0.8,0.8
512116,5.40313e+006,330.32,0.8,0.8,0.8
512064,5.40327e+006,312.98,0.8,0.8,0.8
512065,5.40319e+006,318.91,0.8,0.8,0.8
512244,5.40334e+006,315.99,0.8,0.8,0.8
512127,5.40325e+006,323.04,0.8,0.8,0.8
512089,5.40344e+006,331.43,0.8,0.8,0.8
512056,5.4034e+006,324.86,0.8,0.8,0.8
512536,5.40332e+006,311.91,0.8,0.8,0.8
512257,5.40322e+006,309.43,0.8,0.8,0.8
512282,5.40319e+006,327.41,0.8,0.8,0.8
512140,5.40347e+006,343.02,0.8,0.8,0.8
512099,5.40326e+006,326.2,0.8,0.8,0.8
512028,5.40335e+006,314.11,0.8,0.8,0.8
512367,5.40339e+006,318.14,0.8,0.8,0.8
512158,5.40336e+006,313.15,0.8,0.8,0.8
512327,5.40332e+006,316.07,0.8,0.8,0.8
512199,5.40342e+006,320.97,0.8,0.8,0.8
512318,5.40326e+006,308.98,0.8,0.8,0.8
512161,5.40315e+006,311.97,0.8,0.8,0.8
512280,5.40314e+006,320.78,0.8,0.8,0.8
512399,5.40337e+006,322.95,0.8,0.8,0.8
512437,5.4032e+006,318.09,0.8,0.8,0.8
512542,5.40319e+006,316.19,0.8,0.8,0.8
512030,5.40347e+006,317.65,0.8,0.8,0.8
512059,5.40332e+006,316.57,0.8,0.8,0.8
512165,5.40331e+006,325.78,0.8,0.8,0.8
512487,5.40327e+006,305,0.8,0.8,0.8
512293,5.40331e+006,323.06,0.8,0.8,0.8
512184,5.4033e+006,311.62,0.8,0.8,0.8
512546,5.40338e+006,306.42,0.8,0.8,0.8
512145,5.40315e+006,320.76,0.8,0.8,0.8
512477,5.40328e+006,307.01,0.8,0.8,0.8
512458,5.40329e+006,306.08,0.8,0.8,0.8
512405,5.40325e+006,316.29,0.8,0.8,0.8
512281,5.40312e+006,328.33,0.8,0.8,0.8
512159,5.40334e+006,312.01,0.8,0.8,0.8
512102,5.40348e+006,324.6,0.8,0.8,0.8
512196,5.40314e+006,339.94,0.8,0.8,0.8
512042,5.40313e+006,315.7,0.8,0.8,0.8
512046,5.40349e+006,325.57,0.8,0.8,0.8
512127,5.40344e+006,329.69,0.8,0.8,0.8
512463,5.40348e+006,314.53,0.8,0.8,0.8
512216,5.40334e+006,312.77,0.8,0.8,0.8
512314,5.40345e+006,336.32,0.8,0.8,0.8
512257,5.40335e+006,313.17,0.8,0.8,0.8
512320,5.40348e+006,337.35,0.8,0.8,0.8
512120,5.40316e+006,313.05,0.8,0.8,0.8
512463,5.40335e+006,316.11,0.8,0.8,0.8
512053,5.40343e+006,315.25,0.8,0.8,0.8
512385,5.40345e+006,319.65,0.8,0.8,0.8
512392,5.40326e+006,316.47,0.8,0.8,0.8
512131,5.40318e+006,312.33,0.8,0.8,0.8
512372,5.40345e+006,325.16,0.8,0.8,0.8
512140,5.40332e+006,311.82,0.8,0.8,0.8
512422,5.40312e+006,320.22,0.8,0.8,0.8
512532,5.40324e+006,307.17,0.8,0.8,0.8
512185,5.40317e+006,336.3,0.8,0.8,0.8
512374,5.40317e+006,326.85,0.8,0.8,0.8
512522,5.40322e+006,317.33,0.8,0.8,0.8
512497,5.40318e+006,320.23,0.8,0.8,0.8
512297,5.40329e+006,320.62,0.8,0.8,0.8
512239,5.40327e+006,310.61,0.8,0.8,0.8
512135,5.4033e+006,328.25,0.8,0.8,0.8
512049,5.40328e+006,325.73,0.8,0.8,0.8
512522,5.40321e+006,311.68,0.8,0.8,0.8
512406,5.40328e+006,317.74,0.8,0.8,0.8
512104,5.40329e+006,311.3,0.8,0.8,0.8
512467,5.40347e+006,325.59,0.8,0.8,0.8
512209,5.40349e+006,337.16,0.8,0.8,0.8
512206,5.40316e+006,311.66,0.8,0.8,0.8
512499,5.40331e+006,329.3,0.8,0.8,0.8
512537,5.40327e+006,303.94,0.8,0.8,0.8
512450,5.40314e+006,316.75,0.8,0.8,0.8
512214,5.40331e+006,326.15,0.8,0.8,0.8
512043,5.4033e+006,315.88,0.8,0.8,0.8
512454,5.40331e+006,323.52,0.8,0.8,0.8
512357,5.4035e+006,333.69,0.8,0.8,0.8
512421,5.40321e+006,321.5,0.8,0.8,0.8
512316,5.40325e+006,315.69,0.8,0.8,0.8
512103,5.40344e+006,327.7,0.8,0.8,0.8
512158,5.40337e+006,313.3,0.8,0.8,0.8
512255,5.40336e+006,311.86,0.8,0.8,0.8
512511,5.40324e+006,304.35,0.8,0.8,0.8
512542,5.40325e+006,303.69,0.8,0.8,0.8
512109,5.40319e+006,338.75,0.8,0.8,0.8
512151,5.40337e+006,318.11,0.8,0.8,0.8
512456,5.40324e+006,308.64,0.8,0.8,0.8
512090,5.40335e+006,312.01,0.8,0.8,0.8
512318,5.40326e+006,309.04,0.8,0.8,0.8
512206,5.40336e+006,312.8,0.8,0.8,0.8
512492,5.40341e+006,317.4,0.8,0.8,0.8
512414,5.40341e+006,328.33,0.8,0.8,0.8
512099,5.40327e+006,311.29,0.8,0.8,0.8
512295,5.40346e+006,333.59,0.8,0.8,0.8
512157,5.40347e+006,333.01,0.8,0.8,0.8
512130,5.40335e+006,313,0.8,0.8,0.8
512389,5.40342e+006,325.09,0.8,0.8,0.8
512123,5.40315e+006,337.03,0.8,0.8,0.8
512257,5.40313e+006,311.29,0.8,0.8,0.8
512478,5.40318e+006,312.36,0.8,0.8,0.8
512246,5.40341e+006,332.84,0.8,0.8,0.8
512069,5.40324e+006,312.72,0.8,0.8,0.8
512373,5.40315e+006,318.08,0.8,0.8,0.8
512229,5.40318e+006,331.97,0.8,0.8,0.8
512027,5.40316e+006,319.4,0.8,0.8,0.8
512156,5.40336e+006,313.2,0.8,0.8,0.8
512199,5.4033e+006,314.61,0.8,0.8,0.8
512117,5.40343e+006,318.13,0.8,0.8,0.8
512216,5.40312e+006,308.88,0.8,0.8,0.8
512196,5.40333e+006,311.59,0.8,0.8,0.8
512471,5.40332e+006,327.43,0.8,0.8,0.8
512322,5.4034e+006,317.18,0.8,0.8,0.8
512432,5.40332e+006,324.65,0.8,0.8,0.8
512411,5.40312e+006,316.36,0.8,0.8,0.8
512043,5.40314e+006,328.2,0.8,0.8,0.8
512077,5.40326e+006,317.12,0.8,0.8,0.8
512070,5.40348e+006,321.97,0.8,0.8,0.8
512197,5.40328e+006,318.91,0.8,0.8,0.8
512508,5.40339e+006,315.64,0.8,0.8,0.8
512115,5.40329e+006,311.32,0.8,0.8,0.8
512481,5.40319e+006,304.66,0.8,0.8,0.8
512103,5.40349e+006,340.78,0.8,0.8,0.8
512383,5.40334e+006,309.5,0.8,0.8,0.8
512517,5.4032e+006,307.52,0.8,0.8,0.8
512303,5.40315e+006,309.7,0.8,0.8,0.8
512245,5.40327e+006,310.58,0.8,0.8,0.8
512040,5.40341e+006,314.71,0.8,0.8,0.8
512514,5.40313e+006,313.63,0.8,0.8,0.8
512392,5.40328e+006,308.1,0.8,0.8,0.8
512360,5.40312e+006,325.99,0.8,0.8,0.8
512045,5.40324e+006,314.04,0.8,0.8,0.8
512484,5.40343e+006,322.75,0.8,0.8,0.8
512223,5.40316e+006,318.85,0.8,0.8,0.8
512233,5.40328e+006,310.65,0.8,0.8,0.8
512240,5.40345e+006,324.02,0.8,0.8,0.8
512244,5.4034e+006,319.66,0.8,0.8,0.8
512027,5.40327e+006,321.03,0.8,0.8,0.8
512208,5.40314e+006,318.38,0.8,0.8,0.8
512118,5.40313e+006,330.3,0.8,0.8,0.8
512127,5.40325e+006,312.66,0.8,0.8,0.8
512335,5.40317e+006,331.07,0.8,0.8,0.8
512538,5.40332e+006,313.28,0.8,0.8,0.8
512067,5.40336e+006,312.38,0.8,0.8,0.8
512189,5.40322e+006,329.34,0.8,0.8,0.8
512407,5.40338e+006,325.41,0.8,0.8,0.8
512445,5.40349e+006,317.15,0.8,0.8,0.8
512077,5.4033e+006,327.16,0.8,0.8,0.8
512323,5.40339e+006,316.37,0.8,0.8,0.8
512278,5.40337e+006,313.21,0.8,0.8,0.8
512402,5.4033e+006,307.66,0.8,0.8,0.8
512247,5.40321e+006,323.64,0.8,0.8,0.8
512493,5.40348e+006,330.22,0.8,0.8,0.8
512414,5.40333e+006,310.19,0.8,0.8,0.8
512397,5.40329e+006,307.88,0.8,0.8,0.8
512283,5.4032e+006,327.11,0.8,0.8,0.8
512295,5.4033e+006,323.22,0.8,0.8,0.8
512547,5.40343e+006,311.39,0.8,0.8,0.8
512327,5.40346e+006,338.3,0.8,0.8,0.8
512293,5.40325e+006,309.5,0.8,0.8,0.8
512477,5.4033e+006,324.08,0.8,0.8,0.8
512192,5.4033e+006,320.32,0.8,0.8,0.8
512396,5.40345e+006,330.45,0.8,0.8,0.8
512187,5.40346e+006,327.11,0.8,0.8,0.8
512347,5.40317e+006,325.41,0.8,0.8,0.8
512461,5.40312e+006,320.17,0.8,0.8,0.8
512131,5.40344e+006,334.93,0.8,0.8,0.8
512062,5.40324e+006,332.08,0.8,0.8,0.8
512533,5.40323e+006,303.61,0.8,0.8,0.8
512054,5.40315e+006,324.45,0.8,0.8,0.8
512212,5.40325e+006,319.27,0.8,0.8,0.8
512148,5.40319e+006,311.72,0.8,0.8,0.8
512325,5.40321e+006,308.35,0.8,0.8,0.8
512343,5.40329e+006,315.81,0.8,0.8,0.8
512325,5.40348e+006,335.05,0.8,0.8,0.8
512194,5.40321e+006,311.1,0.8,0.8,0.8
512341,5.40328e+006,308.66,0.8,0.8,0.8
512070,5.40349e+006,329.49,0.8,0.8,0.8
512089,5.40317e+006,319.14,0.8,0.8,0.8
512419,5.40332e+006,311.43,0.8,0.8,0.8
512453,5.40323e+006,315.88,0.8,0.8,0.8
512293,5.40328e+006,309.63,0.8,0.8,0.8
512035,5.40314e+006,321.95,0.8,0.8,0.8
512265,5.40333e+006,321.85,0.8,0.8,0.8
512036,5.40316e+006,340.95,0.8,0.8,0.8
512261,5.40343e+006,336.46,0.8,0.8,0.8
512475,5.40328e+006,307.67,0.8,0.8,0.8
512188,5.40327e+006,319.11,0.8,0.8,0.8
512222,5.4034e+006,316.59,0.8,0.8,0.8
512107,5.40324e+006,311.97,0.8,0.8,0.8
512339,5.40348e+006,324.12,0.8,0.8,0.8
512275,5.40313e+006,327.37,0.8,0.8,0.8
512062,5.40314e+006,323.31,0.8,0.8,0.8
512248,5.40347e+006,332.08,0.8,0.8,0.8
512141,5.40321e+006,311.74,0.8,0.8,0.8
512259,5.40313e+006,311.38,0.8,0.8,0.8
512065,5.40321e+006,329.05,0.8,0.8,0.8
512503,5.40326e+006,304.53,0.8,0.8,0.8
512410,5.40314e+006,316.69,0.8,0.8,0.8
512313,5.40323e+006,308.24,0.8,0.8,0.8
512376,5.40328e+006,308.48,0.8,0.8,0.8
512428,5.40335e+006,326.31,0.8,0.8,0.8
512085,5.40349e+006,332.5,0.8,0.8,0.8
512223,5.40328e+006,324.97,0.8,0.8,0.8
512265,5.40322e+006,308.62,0.8,0.8,0.8
512501,5.40345e+006,312.97,0.8,0.8,0.8
512142,5.40328e+006,318.17,0.8,0.8,0.8
512105,5.4035e+006,340.68,0.8,0.8,0.8
512255,5.40338e+006,316.72,0.8,0.8,0.8
512343,5.40319e+006,325.77,0.8,0.8,0.8
512193,5.40324e+006,310.46,0.8,0.8,0.8
512114,5.40325e+006,311.51,0.8,0.8,0.8
512338,5.40345e+006,335.72,0.8,0.8,0.8
512241,5.4032e+006,308.99,0.8,0.8,0.8
512347,5.40317e+006,326.09,0.8,0.8,0.8
512542,5.40344e+006,309.42,0.8,0.8,0.8
512514,5.40316e+006,305.68,0.8,0.8,0.8
512358,5.40318e+006,308.52,0.8,0.8,0.8
512074,5.40345e+006,318.23,0.8,0.8,0.8
512503,5.40313e+006,304.57,0.8,0.8,0.8
512448,5.40334e+006,313.93,0.8,0.8,0.8
512120,5.40347e+006,329.71,0.8,0.8,0.8
512548,5.40316e+006,300.6,0.8,0.8,0.8
512303,5.4033e+006,323.71,0.8,0.8,0.8
512272,5.40341e+006,329.23,0.8,0.8,0.8
512408,5.40336e+006,324.41,0.8,0.8,0.8
512314,5.40345e+006,330.97,0.8,0.8,0.8
512378,5.40321e+006,307.96,0.8,0.8,0.8
512066,5.4032e+006,327.01,0.8,0.8,0.8
512260,5.40343e+006,332.68,0.8,0.8,0.8
512384,5.40343e+006,316.02,0.8,0.8,0.8
512369,5.40348e+006,334.74,0.8,0.8,0.8
512062,5.40331e+006,316.53,0.8,0.8,0.8
512324,5.40349e+006,339.54,0.8,0.8,0.8
512399,5.4034e+006,328.68,0.8,0.8,0.8
512287,5.40345e+006,334.54,0.8,0.8,0.8
512163,5.40342e+006,323.85,0.8,0.8,0.8
512162,5.4033e+006,328.43,0.8,0.8,0.8
512349,5.40322e+006,311.06,0.8,0.8,0.8
512413,5.40313e+006,324.65,0.8,0.8,0.8
512025,5.40314e+006,339.16,0.8,0.8,0.8
512355,5.4033e+006,319.04,0.8,0.8,0.8
512327,5.40337e+006,314.4,0.8,0.8,0.8
512357,5.40327e+006,318.2,0.8,0.8,0.8
512393,5.40326e+006,331.84,0.8,0.8,0.8
512523,5.4034e+006,309.82,0.8,0.8,0.8
512290,5.40347e+006,327.16,0.8,0.8,0.8
512444,5.40334e+006,319.28,0.8,0.8,0.8
512150,5.40333e+006,311.92,0.8,0.8,0.8
512242,5.40338e+006,315.48,0.8,0.8,0.8
512238,5.40348e+006,338.03,0.8,0.8,0.8
512286,5.40332e+006,310.69,0.8,0.8,0.8
512133,5.40318e+006,312.3,0.8,0.8,0.8
512179,5.40331e+006,329.01,0.8,0.8,0.8
512292,5.40333e+006,310.8,0.8,0.8,0.8
512386,5.40318e+006,307.93,0.8,0.8,0.8
512482,5.40334e+006,307.33,0.8,0.8,0.8
512160,5.40338e+006,313.43,0.8,0.8,0.8
512535,5.40336e+006,314.27,0.8,0.8,0.8
512192,5.4033e+006,322.73,0.8,0.8,0.8
512346,5.40328e+006,308.65,0.8,0.8,0.8
512094,5.40346e+006,321.95,0.8,0.8,0.8
512540,5.40326e+006,303.79,0.8,0.8,0.8
512389,5.4034e+006,327.32,0.8,0.8,0.8
512169,5.40323e+006,316,0.8,0.8,0.8
512547,5.40322e+006,303.7,0.8,0.8,0.8
512325,5.40314e+006,310,0.8,0.8,0.8
512311,5.40323e+006,308.25,0.8,0.8,0.8
512170,5.40313e+006,321.88,0.8,0.8,0.8
512181,5.40337e+006,318.97,0.8,0.8,0.8
512101,5.40325e+006,320.06,0.8,0.8,0.8
512387,5.40333e+006,309.26,0.8,0.8,0.8
512500,5.40312e+006,304.71,0.8,0.8,0.8
512066,5.40336e+006,312.18,0.8,0.8,0.8
512248,5.40334e+006,311.53,0.8,0.8,0.8
512115,5.40327e+006,311.35,0.8,0.8,0.8
512278,5.4035e+006,327.4,0.8,0.8,0.8
512291,5.40346e+006,333.91,0.8,0.8,0.8
512146,5.4034e+006,327.8,0.8,0.8,0.8
512482,5.40319e+006,304.91,0.8,0.8,0.8
512249,5.40315e+006,315.3,0.8,0.8,0.8
512478,5.40325e+006,317.96,0.8,0.8,0.8
512028,5.4032e+006,323.72,0.8,0.8,0.8
512409,5.40332e+006,308.04,0.8,0.8,0.8
512043,5.40327e+006,325.67,0.8,0.8,0.8
512296,5.40323e+006,317.71,0.8,0.8,0.8
512427,5.40336e+006,324.42,0.8,0.8,0.8
512201,5.40319e+006,336.19,0.8,0.8,0.8
512362,5.40326e+006,317.27,0.8,0.8,0.8
512414,5.40346e+006,326.14,0.8,0.8,0.8
512377,5.40324e+006,308.39,0.8,0.8,0.8
512389,5.40345e+006,319.08,0.8,0.8,0.8
512041,5.40337e+006,332.76,0.8,0.8,0.8
512035,5.40345e+006,316.09,0.8,0.8,0.8
512329,5.40326e+006,319.8,0.8,0.8,0.8
512279,5.40322e+006,320.95,0.8,0.8,0.8
512251,5.4033e+006,311,0.8,0.8,0.8
512421,5.40319e+006,316.75,0.8,0.8,0.8
512277,5.40333e+006,319.67,0.8,0.8,0.8
512118,5.40338e+006,314.23,0.8,0.8,0.8
512316,5.40316e+006,314.34,0.8,0.8,0.8
512222,5.40344e+006,334.77,0.8,0.8,0.8
512455,5.40328e+006,305.97,0.8,0.8,0.8
512068,5.40317e+006,324.55,0.8,0.8,0.8
512132,5.40322e+006,311.68,0.8,0.8,0.8
512499,5.40346e+006,316.66,0.8,0.8,0.8
512443,5.40342e+006,311.99,0.8,0.8,0.8
512363,5.40335e+006,322.07,0.8,0.8,0.8
512210,5.4034e+006,322.28,0.8,0.8,0.8
512525,5.40328e+006,304.43,0.8,0.8,0.8
512479,5.40343e+006,320.69,0.8,0.8,0.8
512520,5.40338e+006,314.34,0.8,0.8,0.8
512483,5.40344e+006,310.34,0.8,0.8,0.8
512187,5.40312e+006,311.98,0.8,0.8,0.8
512442,5.40345e+006,313.09,0.8,0.8,0.8
512211,5.40346e+006,327.51,0.8,0.8,0.8
512323,5.40333e+006,309.89,0.8,0.8,0.8
512383,5.40337e+006,315.84,0.8,0.8,0.8
512314,5.40348e+006,326.72,0.8,0.8,0.8
512468,5.40336e+006,316.09,0.8,0.8,0.8
512090,5.40346e+006,322.02,0.8,0.8,0.8
512391,5.40344e+006,330.15,0.8,0.8,0.8
512188,5.40339e+006,315.6,0.8,0.8,0.8
512383,5.40313e+006,316.21,0.8,0.8,0.8
512359,5.40342e+006,322.16,0.8,0.8,0.8
512024,5.40341e+006,322.68,0.8,0.8,0.8
512061,5.40337e+006,312.75,0.8,0.8,0.8
512534,5.40328e+006,304.08,0.8,0.8,0.8
512134,5.40332e+006,311.91,0.8,0.8,0.8
512342,5.40332e+006,319.06,0.8,0.8,0.8
512425,5.40329e+006,306.78,0.8,0.8,0.8
512430,5.40334e+006,319.46,0.8,0.8,0.8
512440,5.4035e+006,330.72,0.8,0.8,0.8
512051,5.40319e+006,321.7,0.8,0.8,0.8
512542,5.40348e+006,311.84,0.8,0.8,0.8
512090,5.40336e+006,311.94,0.8,0.8,0.8
512289,5.4032e+006,313.36,0.8,0.8,0.8
512538,5.40344e+006,309.34,0.8,0.8,0.8
512176,5.40339e+006,325.67,0.8,0.8,0.8
512313,5.40343e+006,320.19,0.8,0.8,0.8
512448,5.40321e+006,303.91,0.8,0.8,0.8
512353,5.40323e+006,323.5,0.8,0.8,0.8
512530,5.40331e+006,308.81,0.8,0.8,0.8
512259,5.40347e+006,334.16,0.8,0.8,0.8
512240,5.40337e+006,323.49,0.8,0.8,0.8
512326,5.4033e+006,320.62,0.8,0.8,0.8
512362,5.40343e+006,333.43,0.8,0.8,0.8
512098,5.40348e+006,337.32,0.8,0.8,0.8
512199,5.40321e+006,310.94,0.8,0.8,0.8
512177,5.40317e+006,336.43,0.8,0.8,0.8
512301,5.40325e+006,312.6,0.8,0.8,0.8
512301,5.4033e+006,310.09,0.8,0.8,0.8
512030,5.40323e+006,320.65,0.8,0.8,0.8
512380,5.4034e+006,323.92,0.8,0.8,0.8
512239,5.40339e+006,318.21,0.8,0.8,0.8
512295,5.40343e+006,334.04,0.8,0.8,0.8
512032,5.40338e+006,313.74,0.8,0.8,0.8
512355,5.40346e+006,322.04,0.8,0.8,0.8
512434,5.4033e+006,311.91,0.8,0.8,0.8
512402,5.4035e+006,317,0.8,0.8,0.8
512478,5.40315e+006,304.65,0.8,0.8,0.8
512323,5.40326e+006,308.98,0.8,0.8,0.8
512358,5.40327e+006,314,0.8,0.8,0.8
512478,5.40338e+006,320.15,0.8,0.8,0.8
512425,5.40314e+006,306.14,0.8,0.8,0.8
512451,5.40343e+006,311.56,0.8,0.8,0.8
512406,5.40314e+006,322.45,0.8,0.8,0.8
512323,5.4035e+006,339.38,0.8,0.8,0.8
512025,5.40327e+006,314.58,0.8,0.8,0.8
512190,5.40343e+006,321.33,0.8,0.8,0.8
512462,5.40329e+006,305.95,0.8,0.8,0.8
512183,5.40334e+006,312.02,0.8,0.8,0.8
512121,5.40327e+006,316.93,0.8,0.8,0.8
512247,5.40316e+006,328.67,0.8,0.8,0.8
512275,5.40323e+006,317.8,0.8,0.8,0.8
512208,5.40317e+006,311.77,0.8,0.8,0.8
512202,5.40313e+006,343.34,0.8,0.8,0.8
512537,5.40314e+006,303.89,0.8,0.8,0.8
512499,5.40346e+006,314.61,0.8,0.8,0.8
512036,5.40348e+006,329.26,0.8,0.8,0.8
512144,5.40318e+006,312.01,0.8,0.8,0.8
512455,5.40315e+006,317.31,0.8,0.8,0.8
512251,5.40347e+006,337.16,0.8,0.8,0.8
512059,5.40318e+006,321.8,0.8,0.8,0.8
512099,5.40323e+006,332.23,0.8,0.8,0.8
512058,5.40334e+006,324.01,0.8,0.8,0.8
512343,5.40347e+006,330.57,0.8,0.8,0.8
512164,5.40345e+006,325.29,0.8,0.8,0.8
512108,5.40324e+006,312,0.8,0.8,0.8
512244,5.40337e+006,327.05,0.8,0.8,0.8
512441,5.40326e+006,318.63,0.8,0.8,0.8
512323,5.40316e+006,309.73,0.8,0.8,0.8
512191,5.40329e+006,314.32,0.8,0.8,0.8
512541,5.4032e+006,304.02,0.8,0.8,0.8
512324,5.40343e+006,325.89,0.8,0.8,0.8
512228,5.40327e+006,310.82,0.8,0.8,0.8
512476,5.40316e+006,303.22,0.8,0.8,0.8
512424,5.40343e+006,323.53,0.8,0.8,0.8
512073,5.40324e+006,317.31,0.8,0.8,0.8
512414,5.40328e+006,307.48,0.8,0.8,0.8
512042,5.40314e+006,315.68,0.8,0.8,0.8
512514,5.40314e+006,304.36,0.8,0.8,0.8
512440,5.40325e+006,317.37,0.8,0.8,0.8
512408,5.40317e+006,316.45,0.8,0.8,0.8
512510,5.40323e+006,316.66,0.8,0.8,0.8
512326,5.40328e+006,313.23,0.8,0.8,0.8
512196,5.40343e+006,324.97,0.8,0.8,0.8
512275,5.40314e+006,329.26,0.8,0.8,0.8
512149,5.40346e+006,334.12,0.8,0.8,0.8
512261,5.40345e+006,333,0.8,0.8,0.8
512254,5.40329e+006,323.72,0.8,0.8,0.8
512325,5.40348e+006,337.49,0.8,0.8,0.8
512144,5.40321e+006,311.74,0.8,0.8,0.8
512448,5.4035e+006,315.55,0.8,0.8,0.8
512071,5.40324e+006,334.35,0.8,0.8,0.8
512329,5.40326e+006,321.67,0.8,0.8,0.8
512211,5.40325e+006,319.42,0.8,0.8,0.8
512187,5.40333e+006,311.6,0.8,0.8,0.8
512250,5.40339e+006,328.7,0.8,0.8,0.8
512415,5.40345e+006,314.11,0.8,0.8,0.8
512499,5.40345e+006,316.56,0.8,0.8,0.8
512387,5.40312e+006,324.63,0.8,0.8,0.8
512439,5.40327e+006,319.5,0.8,0.8,0.8
512413,5.40313e+006,323.07,0.8,0.8,0.8
512440,5.40316e+006,318.89,0.8,0.8,0.8
512441,5.40344e+006,312.59,0.8,0.8,0.8
512400,5.40341e+006,317.54,0.8,0.8,0.8
512506,5.40345e+006,314.49,0.8,0.8,0.8
512531,5.4032e+006,316.94,0.8,0.8,0.8
512340,5.40345e+006,322.62,0.8,0.8,0.8
512159,5.40333e+006,311.86,0.8,0.8,0.8
512226,5.40341e+006,321.23,0.8,0.8,0.8
512113,5.40331e+006,322.59,0.8,0.8,0.8
512248,5.40328e+006,311.82,0.8,0.8,0.8
512058,5.40323e+006,323.53,0.8,0.8,0.8
512524,5.40333e+006,305.85,0.8,0.8,0.8
512472,5.40327e+006,305.52,0.8,0.8,0.8
512390,5.40315e+006,307.62,0.8,0.8,0.8
512157,5.40312e+006,313.39,0.8,0.8,0.8
512055,5.40322e+006,333.77,0.8,0.8,0.8
512074,5.4032e+006,323.66,0.8,0.8,0.8
512089,5.40337e+006,330.01,0.8,0.8,0.8
512036,5.4032e+006,316.5,0.8,0.8,0.8
512183,5.4033e+006,311.61,0.8,0.8,0.8
512042,5.40315e+006,336.48,0.8,0.8,0.8
512338,5.40331e+006,312.31,0.8,0.8,0.8
512276,5.4032e+006,333.26,0.8,0.8,0.8
512266,5.40317e+006,332.33,0.8,0.8,0.8
512441,5.40346e+006,313.81,0.8,0.8,0.8
512083,5.40347e+006,323.48,0.8,0.8,0.8
512032,5.40318e+006,322.72,0.8,0.8,0.8
512211,5.40339e+006,319.07,0.8,0.8,0.8
512436,5.40334e+006,326.61,0.8,0.8,0.8
512288,5.40318e+006,309.1,0.8,0.8,0.8
512116,5.40314e+006,333.99,0.8,0.8,0.8
512035,5.40314e+006,316.42,0.8,0.8,0.8
512103,5.40345e+006,330.94,0.8,0.8,0.8
512485,5.40349e+006,326.62,0.8,0.8,0.8
512543,5.40324e+006,308.94,0.8,0.8,0.8
512435,5.40318e+006,316.92,0.8,0.8,0.8
512329,5.40341e+006,337.73,0.8,0.8,0.8
512281,5.40348e+006,338.49,0.8,0.8,0.8
512529,5.40328e+006,304.36,0.8,0.8,0.8
512082,5.40321e+006,312.66,0.8,0.8,0.8
512282,5.40346e+006,334.12,0.8,0.8,0.8
512473,5.40332e+006,327.6,0.8,0.8,0.8
512281,5.40312e+006,309.89,0.8,0.8,0.8
512519,5.40319e+006,309.64,0.8,0.8,0.8
512523,5.40326e+006,304.16,0.8,0.8,0.8
512462,5.40337e+006,308.49,0.8,0.8,0.8
512374,5.40332e+006,318.03,0.8,0.8,0.8
512264,5.40334e+006,321.11,0.8,0.8,0.8
512181,5.4034e+006,323.67,0.8,0.8,0.8
512548,5.4033e+006,304.46,0.8,0.8,0.8
512500,5.40337e+006,307.47,0.8,0.8,0.8
512166,5.40343e+006,329.26,0.8,0.8,0.8
512505,5.40319e+006,320.29,0.8,0.8,0.8
512440,5.40317e+006,305.28,0.8,0.8,0.8
512511,5.40312e+006,305.06,0.8,0.8,0.8
512462,5.4032e+006,304.9,0.8,0.8,0.8
512122,5.4032e+006,312.43,0.8,0.8,0.8
512483,5.40325e+006,310.23,0.8,0.8,0.8
512213,5.40345e+006,320.68,0.8,0.8,0.8
512422,5.40312e+006,316.32,0.8,0.8,0.8
512389,5.40349e+006,317.33,0.8,0.8,0.8
512259,5.40314e+006,309.54,0.8,0.8,0.8
512327,5.40337e+006,314.34,0.8,0.8,0.8
512427,5.40333e+006,321.64,0.8,0.8,0.8
512422,5.40331e+006,309.54,0.8,0.8,0.8
512544,5.40317e+006,303.55,0.8,0.8,0.8
512426,5.40347e+006,315.54,0.8,0.8,0.8
512293,5.40344e+006,338.57,0.8,0.8,0.8
512113,5.4033e+006,311.58,0.8,0.8,0.8
512518,5.40335e+006,306.52,0.8,0.8,0.8
512210,5.40321e+006,319.52,0.8,0.8,0.8
512212,5.40313e+006,311.68,0.8,0.8,0.8
512183,5.40328e+006,319.1,0.8,0.8,0.8
512143,5.40327e+006,312.69,0.8,0.8,0.8
512473,5.40319e+006,304.66,0.8,0.8,0.8
512031,5.40335e+006,313.37,0.8,0.8,0.8
512437,5.40333e+006,321.94,0.8,0.8,0.8
512266,5.40344e+006,330.71,0.8,0.8,0.8
512439,5.40325e+006,305.03,0.8,0.8,0.8
512486,5.40333e+006,326.54,0.8,0.8,0.8
512254,5.4035e+006,331.79,0.8,0.8,0.8
512202,5.40346e+006,339.94,0.8,0.8,0.8
512384,5.40316e+006,327.13,0.8,0.8,0.8
512240,5.40318e+006,328.37,0.8,0.8,0.8
512423,5.40333e+006,314.55,0.8,0.8,0.8
512250,5.40326e+006,319.17,0.8,0.8,0.8
512361,5.40337e+006,317.36,0.8,0.8,0.8
512226,5.40334e+006,316.29,0.8,0.8,0.8
512461,5.40331e+006,323.39,0.8,0.8,0.8
512088,5.40326e+006,316.9,0.8,0.8,0.8
512458,5.40349e+006,314.66,0.8,0.8,0.8
512333,5.40327e+006,321.81,0.8,0.8,0.8
512351,5.4033e+006,322.96,0.8,0.8,0.8
512422,5.40349e+006,329.65,0.8,0.8,0.8
512296,5.40324e+006,321,0.8,0.8,0.8
512444,5.40316e+006,319.34,0.8,0.8,0.8
512025,5.40327e+006,318.48,0.8,0.8,0.8
512167,5.40331e+006,311.55,0.8,0.8,0.8
512439,5.40323e+006,304.69,0.8,0.8,0.8
512351,5.40324e+006,322.26,0.8,0.8,0.8
512172,5.40344e+006,333.2,0.8,0.8,0.8
512206,5.40315e+006,311.73,0.8,0.8,0.8
512291,5.40334e+006,319.58,0.8,0.8,0.8
512141,5.40333e+006,312.04,0.8,0.8,0.8
512268,5.4034e+006,324.78,0.8,0.8,0.8
512541,5.40339e+006,308.43,0.8,0.8,0.8
512128,5.40345e+006,323.51,0.8,0.8,0.8
512323,5.40316e+006,309.62,0.8,0.8,0.8
512349,5.40346e+006,326.88,0.8,0.8,0.8
512061,5.40322e+006,312.61,0.8,0.8,0.8
512388,5.40338e+006,316.46,0.8,0.8,0.8
512180,5.40324e+006,320.05,0.8,0.8,0.8
512134,5.40345e+006,334.24,0.8,0.8,0.8
512405,5.40345e+006,329.01,0.8,0.8,0.8
512387,5.40323e+006,326.52,0.8,0.8,0.8
512510,5.40318e+006,320.46,0.8,0.8,0.8
512445,5.40334e+006,321.06,0.8,0.8,0.8
512283,5.40348e+006,338.87,0.8,0.8,0.8
512271,5.40333e+006,322.01,0.8,0.8,0.8
512305,5.40342e+006,333.51,0.8,0.8,0.8
512526,5.4034e+006,307.08,0.8,0.8,0.8
512328,5.40325e+006,323,0.8,0.8,0.8
512388,5.40332e+006,317.25,0.8,0.8,0.8
512356,5.40325e+006,323.4,0.8,0.8,0.8
512207,5.40345e+006,329.61,0.8,0.8,0.8
512124,5.40329e+006,326.89,0.8,0.8,0.8
512475,5.40344e+006,310.48,0.8,0.8,0.8
512440,5.40335e+006,317.44,0.8,0.8,0.8
512194,5.40339e+006,320.68,0.8,0.8,0.8
512511,5.40329e+006,305.15,0.8,0.8,0.8
512352,5.40315e+006,325.13,0.8,0.8,0.8
512250,5.40325e+006,310.26,0.8,0.8,0.8
512459,5.40313e+006,317.55,0.8,0.8,0.8
512190,5.40317e+006,336.16,0.8,0.8,0.8
512508,5.40346e+006,310.55,0.8,0.8,0.8
512124,5.40337e+006,328.07,0.8,0.8,0.8
512509,5.40323e+006,317.6,0.8,0.8,0.8
512228,5.40317e+006,321.6,0.8,0.8,0.8
512480,5.40315e+006,305.59,0.8,0.8,0.8
512104,5.40324e+006,333.34,0.8,0.8,0.8
512202,5.40319e+006,336.19,0.8,0.8,0.8
512179,5.40325e+006,314.69,0.8,0.8,0.8
512144,5.40342e+006,332.15,0.8,0.8,0.8
512054,5.40313e+006,315.53,0.8,0.8,0.8
512184,5.40332e+006,311.56,0.8,0.8,0.8
512259,5.40313e+006,312.46,0.8,0.8,0.8
512236,5.40345e+006,334.71,0.8,0.8,0.8
512384,5.40342e+006,316.24,0.8,0.8,0.8
512390,5.40317e+006,324.82,0.8,0.8,0.8
512411,5.40325e+006,317.67,0.8,0.8,0.8
512240,5.40337e+006,320.02,0.8,0.8,0.8
512056,5.40349e+006,326.87,0.8,0.8,0.8
512492,5.40312e+006,304.94,0.8,0.8,0.8
512058,5.40328e+006,328.36,0.8,0.8,0.8
512469,5.40329e+006,306.8,0.8,0.8,0.8
512486,5.40342e+006,321.79,0.8,0.8,0.8
512139,5.40343e+006,334.54,0.8,0.8,0.8
512343,5.40318e+006,313.9,0.8,0.8,0.8
512236,5.40319e+006,330.58,0.8,0.8,0.8
512131,5.4032e+006,311.76,0.8,0.8,0.8
512272,5.40338e+006,324.5,0.8,0.8,0.8
512228,5.40349e+006,342.84,0.8,0.8,0.8
512146,5.40317e+006,312.22,0.8,0.8,0.8
512180,5.40312e+006,312.06,0.8,0.8,0.8
512085,5.40341e+006,314.7,0.8,0.8,0.8
512439,5.40331e+006,309.54,0.8,0.8,0.8
512332,5.40338e+006,329.18,0.8,0.8,0.8
512364,5.40346e+006,327.11,0.8,0.8,0.8
512351,5.40342e+006,322.93,0.8,0.8,0.8
512478,5.40317e+006,304.6,0.8,0.8,0.8
512060,5.40332e+006,327.06,0.8,0.8,0.8
512255,5.40329e+006,326.69,0.8,0.8,0.8
512380,5.40313e+006,308.47,0.8,0.8,0.8
512331,5.4033e+006,319.9,0.8,0.8,0.8
512233,5.40344e+006,334.7,0.8,0.8,0.8
512241,5.40325e+006,332.84,0.8,0.8,0.8
512186,5.40344e+006,323.55,0.8,0.8,0.8
512277,5.40315e+006,309.51,0.8,0.8,0.8
512351,5.40326e+006,315.56,0.8,0.8,0.8
512343,5.40319e+006,326.01,0.8,0.8,0.8
512095,5.4032e+006,313.04,0.8,0.8,0.8
512195,5.40334e+006,317.49,0.8,0.8,0.8
512181,5.40341e+006,319.52,0.8,0.8,0.8
512542,5.4032e+006,304.01,0.8,0.8,0.8
512133,5.40343e+006,327.87,0.8,0.8,0.8
512121,5.40315e+006,335.35,0.8,0.8,0.8
512194,5.40333e+006,311.57,0.8,0.8,0.8
512464,5.40313e+006,317.03,0.8,0.8,0.8
512468,5.40319e+006,304.73,0.8,0.8,0.8
512490,5.40312e+006,304.93,0.8,0.8,0.8
512270,5.40324e+006,322.14,0.8,0.8,0.8
512221,5.40333e+006,318.39,0.8,0.8,0.8
512358,5.40336e+006,327.13,0.8,0.8,0.8
512111,5.40344e+006,321.37,0.8,0.8,0.8
512247,5.40316e+006,330.16,0.8,0.8,0.8
512362,5.40344e+006,337.92,0.8,0.8,0.8
512091,5.40323e+006,320.15,0.8,0.8,0.8
512149,5.40319e+006,311.71,0.8,0.8,0.8
512214,5.40328e+006,310.94,0.8,0.8,0.8
512217,5.40321e+006,323.32,0.8,0.8,0.8
512030,5.40333e+006,324.01,0.8,0.8,0.8
512446,5.40313e+006,316.9,0.8,0.8,0.8
512446,5.40336e+006,321.25,0.8,0.8,0.8
512463,5.40342e+006,310.77,0.8,0.8,0.8
512449,5.40332e+006,315.65,0.8,0.8,0.8
512087,5.40321e+006,313.24,0.8,0.8,0.8
512320,5.40336e+006,310.69,0.8,0.8,0.8
512268,5.40329e+006,324.44,0.8,0.8,0.8
512228,5.40312e+006,316.46,0.8,0.8,0.8
512074,5.40321e+006,328.11,0.8,0.8,0.8
512388,5.40315e+006,323.96,0.8,0.8,0.8
512355,5.40329e+006,324.31,0.8,0.8,0.8
512295,5.40338e+006,314.24,0.8,0.8,0.8
512062,5.40332e+006,327.07,0.8,0.8,0.8
512425,5.40336e+006,327.06,0.8,0.8,0.8
512482,5.40315e+006,303.62,0.8,0.8,0.8
512278,5.40327e+006,310,0.8,0.8,0.8
512164,5.40329e+006,326.24,0.8,0.8,0.8
512312,5.40345e+006,332.87,0.8,0.8,0.8
512491,5.40317e+006,328.48,0.8,0.8,0.8
512171,5.40337e+006,316.82,0.8,0.8,0.8
512220,5.40331e+006,312.46,0.8,0.8,0.8
512181,5.40337e+006,313.21,0.8,0.8,0.8
512525,5.40337e+006,314.31,0.8,0.8,0.8
512111,5.40327e+006,311.4,0.8,0.8,0.8
512087,5.40319e+006,314.1,0.8,0.8,0.8
512387,5.40323e+006,316.41,0.8,0.8,0.8
512081,5.40337e+006,331.94,0.8,0.8,0.8
512366,5.40324e+006,322.29,0.8,0.8,0.8
512325,5.40325e+006,316.73,0.8,0.8,0.8
512436,5.40325e+006,305.18,0.8,0.8,0.8
512538,5.4033e+006,305.86,0.8,0.8,0.8
512051,5.40319e+006,324.08,0.8,0.8,0.8
512334,5.40342e+006,325.24,0.8,0.8,0.8
512153,5.40344e+006,331.7,0.8,0.8,0.8
512091,5.40349e+006,341.39,0.8,0.8,0.8
512072,5.40349e+006,333.74,0.8,0.8,0.8
512376,5.40334e+006,309.43,0.8,0.8,0.8
512248,5.40344e+006,324.89,0.8,0.8,0.8
512235,5.40338e+006,323.89,0.8,0.8,0.8
512541,5.40334e+006,305.7,0.8,0.8,0.8
512144,5.40335e+006,313.43,0.8,0.8,0.8
512212,5.40338e+006,313.99,0.8,0.8,0.8
512031,5.40334e+006,314.22,0.8,0.8,0.8
512221,5.4034e+006,326.8,0.8,0.8,0.8
512392,5.40345e+006,328.64,0.8,0.8,0.8
512383,5.40336e+006,315.33,0.8,0.8,0.8
512109,5.40342e+006,328.88,0.8,0.8,0.8
512248,5.40336e+006,311.98,0.8,0.8,0.8
512383,5.40332e+006,316.44,0.8,0.8,0.8
512512,5.40327e+006,304.56,0.8,0.8,0.8
512301,5.40321e+006,312.44,0.8,0.8,0.8
512502,5.40323e+006,312.51,0.8,0.8,0.8
512404,5.40316e+006,324.32,0.8,0.8,0.8
512393,5.40328e+006,318.7,0.8,0.8,0.8
512286,5.40325e+006,309.65,0.8,0.8,0.8
512368,5.40329e+006,308.43,0.8,0.8,0.8
512093,5.4033e+006,311.4,0.8,0.8,0.8
512089,5.40323e+006,322.67,0.8,0.8,0.8
512221,5.40348e+006,346.04,0.8,0.8,0.8
512315,5.40322e+006,308.12,0.8,0.8,0.8
512090,5.40329e+006,312.26,0.8,0.8,0.8
512340,5.40314e+006,309.91,0.8,0.8,0.8
512227,5.40321e+006,317.26,0.8,0.8,0.8
512534,5.40327e+006,304.21,0.8,0.8,0.8
512081,5.40336e+006,312.07,0.8,0.8,0.8
512195,5.40335e+006,320.27,0.8,0.8,0.8
512431,5.40346e+006,313.87,0.8,0.8,0.8
512471,5.40336e+006,317.92,0.8,0.8,0.8
512170,5.4032e+006,311.42,0.8,0.8,0.8
512401,5.40335e+006,319.61,0.8,0.8,0.8
512474,5.40323e+006,304.31,0.8,0.8,0.8
512460,5.40313e+006,317.6,0.8,0.8,0.8
512532,5.40348e+006,312.16,0.8,0.8,0.8
512104,5.40347e+006,336.26,0.8,0.8,0.8
512306,5.4034e+006,317.44,0.8,0.8,0.8
512119,5.4032e+006,340.79,0.8,0.8,0.8
512035,5.40339e+006,319.53,0.8,0.8,0.8
512248,5.40335e+006,311.9,0.8,0.8,0.8
512468,5.40347e+006,319.33,0.8,0.8,0.8
512182,5.40343e+006,325.78,0.8,0.8,0.8
512162,5.40341e+006,315.65,0.8,0.8,0.8
512461,5.40333e+006,329.62,0.8,0.8,0.8
512304,5.40339e+006,315.18,0.8,0.8,0.8
512124,5.40325e+006,311.44,0.8,0.8,0.8
512259,5.40337e+006,312.03,0.8,0.8,0.8
512031,5.40338e+006,318.68,0.8,0.8,0.8
512382,5.40322e+006,317.06,0.8,0.8,0.8
512330,5.40347e+006,324.78,0.8,0.8,0.8
512179,5.4034e+006,329.97,0.8,0.8,0.8
512524,5.40332e+006,305.4,0.8,0.8,0.8
512126,5.40336e+006,313.82,0.8,0.8,0.8
512543,5.40337e+006,311.28,0.8,0.8,0.8
512489,5.40335e+006,323.67,0.8,0.8,0.8
512377,5.4033e+006,308.37,0.8,0.8,0.8
512265,5.40332e+006,318.32,0.8,0.8,0.8
512527,5.40331e+006,309.11,0.8,0.8,0.8
512392,5.40348e+006,317.24,0.8,0.8,0.8
512076,5.40343e+006,316.36,0.8,0.8,0.8
512069,5.40313e+006,319.6,0.8,0.8,0.8
512340,5.40314e+006,311.82,0.8,0.8,0.8
512123,5.40338e+006,314.33,0.8,0.8,0.8
512229,5.40347e+006,327.7,0.8,0.8,0.8
512044,5.40347e+006,320.51,0.8,0.8,0.8
512334,5.40344e+006,321.95,0.8,0.8,0.8
512257,5.40315e+006,309.46,0.8,0.8,0.8
512321,5.40332e+006,318.61,0.8,0.8,0.8
512252,5.40336e+006,312.96,0.8,0.8,0.8
512338,5.40334e+006,324.25,0.8,0.8,0.8
512511,5.40316e+006,300.78,0.8,0.8,0.8
512463,5.40313e+006,316.26,0.8,0.8,0.8
512506,5.40329e+006,324.33,0.8,0.8,0.8
512118,5.40313e+006,332.31,0.8,0.8,0.8
512451,5.40315e+006,318.82,0.8,0.8,0.8
512166,5.40318e+006,332.74,0.8,0.8,0.8
512249,5.40322e+006,310.48,0.8,0.8,0.8
512508,5.40345e+006,314.1,0.8,0.8,0.8
512537,5.40332e+006,315.37,0.8,0.8,0.8
512346,5.40338e+006,321.72,0.8,0.8,0.8
512432,5.40326e+006,319.17,0.8,0.8,0.8
512486,5.40321e+006,308.98,0.8,0.8,0.8
512165,5.40326e+006,315.27,0.8,0.8,0.8
512119,5.4032e+006,340.24,0.8,0.8,0.8
512043,5.4032e+006,312.62,0.8,0.8,0.8
512433,5.4032e+006,318.11,0.8,0.8,0.8
512133,5.40332e+006,311.88,0.8,0.8,0.8
512036,5.40317e+006,338.82,0.8,0.8,0.8
512330,5.40331e+006,316.56,0.8,0.8,0.8
512506,5.4032e+006,312.53,0.8,0.8,0.8
512156,5.40342e+006,318.87,0.8,0.8,0.8
512153,5.40321e+006,329.42,0.8,0.8,0.8
512344,5.40339e+006,325.92,0.8,0.8,0.8
512540,5.40332e+006,312.35,0.8,0.8,0.8
512100,5.40335e+006,312.04,0.8,0.8,0.8
512549,5.40333e+006,307.2,0.8,0.8,0.8
512214,5.4032e+006,326.97,0.8,0.8,0.8
512035,5.40325e+006,314.12,0.8,0.8,0.8
512222,5.40339e+006,328.33,0.8,0.8,0.8
512190,5.40321e+006,311.06,0.8,0.8,0.8
512112,5.40322e+006,337.64,0.8,0.8,0.8
512547,5.4033e+006,312.44,0.8,0.8,0.8
512379,5.40315e+006,308.07,0.8,0.8,0.8
512317,5.40341e+006,321.56,0.8,0.8,0.8
512212,5.40346e+006,330.11,0.8,0.8,0.8
512285,5.40333e+006,316.88,0.8,0.8,0.8
512133,5.40327e+006,328.95,0.8,0.8,0.8
512190,5.40347e+006,339.19,0.8,0.8,0.8
512507,5.40322e+006,303.71,0.8,0.8,0.8
512236,5.40321e+006,310.64,0.8,0.8,0.8
512123,5.40326e+006,323.33,0.8,0.8,0.8
512489,5.40326e+006,305.09,0.8,0.8,0.8
512029,5.40339e+006,339.92,0.8,0.8,0.8
512086,5.40336e+006,313.5,0.8,0.8,0.8
512477,5.40345e+006,321.35,0.8,0.8,0.8
512034,5.40342e+006,315.14,0.8,0.8,0.8
512377,5.40325e+006,309.04,0.8,0.8,0.8
512134,5.40327e+006,328.85,0.8,0.8,0.8
512332,5.40317e+006,325.52,0.8,0.8,0.8
512473,5.40328e+006,305.6,0.8,0.8,0.8
512541,5.40333e+006,305.39,0.8,0.8,0.8
512060,5.4035e+006,328.76,0.8,0.8,0.8
512045,5.4034e+006,314.36,0.8,0.8,0.8
512367,5.40318e+006,308.27,0.8,0.8,0.8
512121,5.40347e+006,339.56,0.8,0.8,0.8
512057,5.40333e+006,319.27,0.8,0.8,0.8
512055,5.40349e+006,327.86,0.8,0.8,0.8
512461,5.40313e+006,320.15,0.8,0.8,0.8
512493,5.40314e+006,304.53,0.8,0.8,0.8
512081,5.40347e+006,333.72,0.8,0.8,0.8
512359,5.40317e+006,308.74,0.8,0.8,0.8
512484,5.40323e+006,304.26,0.8,0.8,0.8
512078,5.40315e+006,314.39,0.8,0.8,0.8
512394,5.40319e+006,312.66,0.8,0.8,0.8
512279,5.40343e+006,335.38,0.8,0.8,0.8
512537,5.40325e+006,303.77,0.8,0.8,0.8
512162,5.4032e+006,322.84,0.8,0.8,0.8
512543,5.40316e+006,303.89,0.8,0.8,0.8
512476,5.40332e+006,330.03,0.8,0.8,0.8
512031,5.40346e+006,317.43,0.8,0.8,0.8
512099,5.40329e+006,311.39,0.8,0.8,0.8
512362,5.40333e+006,319.55,0.8,0.8,0.8
512049,5.40348e+006,329.89,0.8,0.8,0.8
512407,5.40326e+006,318.24,0.8,0.8,0.8
512408,5.40316e+006,306.19,0.8,0.8,0.8
512546,5.40349e+006,313.83,0.8,0.8,0.8
512492,5.40332e+006,323.48,0.8,0.8,0.8
512369,5.40347e+006,331.46,0.8,0.8,0.8
512452,5.4032e+006,304.76,0.8,0.8,0.8
512504,5.40318e+006,320.43,0.8,0.8,0.8
512483,5.40333e+006,327.37,0.8,0.8,0.8
512177,5.40328e+006,315.46,0.8,0.8,0.8
512084,5.40345e+006,322.64,0.8,0.8,0.8
512244,5.40343e+006,334.61,0.8,0.8,0.8
512178,5.4034e+006,315.54,0.8,0.8,0.8
512230,5.4032e+006,312.24,0.8,0.8,0.8
512545,5.40327e+006,303.85,0.8,0.8,0.8
512189,5.40343e+006,330.45,0.8,0.8,0.8
512227,5.4033e+006,311.02,0.8,0.8,0.8
512363,5.40328e+006,308.64,0.8,0.8,0.8
512116,5.40349e+006,340.9,0.8,0.8,0.8
512285,5.40337e+006,313.21,0.8,0.8,0.8
512335,5.40318e+006,309.07,0.8,0.8,0.8
512519,5.40321e+006,317.6,0.8,0.8,0.8
512513,5.40323e+006,317.36,0.8,0.8,0.8
512200,5.40314e+006,339.98,0.8,0.8,0.8
512045,5.40339e+006,313.56,0.8,0.8,0.8
512546,5.40315e+006,315.69,0.8,0.8,0.8
512086,5.40313e+006,315.65,0.8,0.8,0.8
512176,5.40325e+006,325.34,0.8,0.8,0.8
512062,5.40322e+006,326.55,0.8,0.8,0.8
512190,5.4033e+006,315.61,0.8,0.8,0.8
512461,5.40312e+006,320.17,0.8,0.8,0.8
512390,5.40328e+006,316.86,0.8,0.8,0.8
512525,5.40323e+006,303.92,0.8,0.8,0.8
512260,5.40344e+006,326.98,0.8,0.8,0.8
512201,5.40326e+006,313.35,0.8,0.8,0.8
512111,5.40317e+006,312.92,0.8,0.8,0.8
512372,5.40319e+006,307.92,0.8,0.8,0.8
512048,5.40328e+006,325.66,0.8,0.8,0.8
512095,5.40316e+006,313.66,0.8,0.8,0.8
512420,5.40336e+006,331.19,0.8,0.8,0.8
512340,5.40314e+006,309.9,0.8,0.8,0.8
512235,5.40346e+006,334.72,0.8,0.8,0.8
512208,5.40318e+006,336.16,0.8,0.8,0.8
512219,5.40327e+006,311.16,0.8,0.8,0.8
512115,5.4032e+006,343.45,0.8,0.8,0.8
512172,5.40321e+006,328.1,0.8,0.8,0.8
512389,5.40314e+006,319.22,0.8,0.8,0.8
512297,5.40346e+006,336.31,0.8,0.8,0.8
512214,5.40329e+006,327.94,0.8,0.8,0.8
512221,5.40331e+006,311.2,0.8,0.8,0.8
512545,5.40319e+006,303.44,0.8,0.8,0.8
512281,5.40318e+006,328.98,0.8,0.8,0.8
512158,5.40337e+006,314.59,0.8,0.8,0.8
512163,5.40337e+006,313.5,0.8,0.8,0.8
512274,5.40324e+006,315.43,0.8,0.8,0.8
512546,5.40346e+006,310.08,0.8,0.8,0.8
512382,5.4032e+006,307.94,0.8,0.8,0.8
512304,5.40335e+006,322.89,0.8,0.8,0.8
512249,5.4033e+006,318.89,0.8,0.8,0.8
512457,5.40326e+006,313.92,0.8,0.8,0.8
512230,5.40327e+006,313.61,0.8,0.8,0.8
512137,5.40329e+006,327.85,0.8,0.8,0.8
512510,5.40328e+006,304.96,0.8,0.8,0.8
512307,5.40338e+006,325.12,0.8,0.8,0.8
512278,5.40315e+006,309.45,0.8,0.8,0.8
512073,5.40337e+006,312.49,0.8,0.8,0.8
512125,5.40346e+006,333.25,0.8,0.8,0.8
512218,5.40341e+006,321.19,0.8,0.8,0.8
512357,5.40315e+006,309.29,0.8,0.8,0.8
512461,5.4033e+006,328.02,0.8,0.8,0.8
512131,5.40337e+006,329.18,0.8,0.8,0.8
512126,5.40346e+006,334.49,0.8,0.8,0.8
512416,5.40347e+006,314.91,0.8,0.8,0.8
512116,5.40331e+006,319.23,0.8,0.8,0.8
512202,5.40315e+006,311.8,0.8,0.8,0.8
512318,5.40348e+006,328.73,0.8,0.8,0.8
512056,5.40321e+006,314.14,0.8,0.8,0.8
512144,5.40318e+006,311.99,0.8,0.8,0.8
512369,5.40335e+006,309.88,0.8,0.8,0.8
512486,5.40346e+006,324.14,0.8,0.8,0.8
512481,5.40317e+006,304.58,0.8,0.8,0.8
512218,5.40334e+006,311.71,0.8,0.8,0.8
512034,5.40338e+006,313.44,0.8,0.8,0.8
512142,5.40313e+006,316.29,0.8,0.8,0.8
512195,5.40334e+006,311.69,0.8,0.8,0.8
512299,5.40343e+006,321.92,0.8,0.8,0.8
512095,5.40343e+006,328.79,0.8,0.8,0.8
512489,5.40318e+006,320.34,0.8,0.8,0.8
512304,5.40324e+006,315.3,0.8,0.8,0.8
512359,5.40332e+006,309.02,0.8,0.8,0.8
512445,5.40329e+006,306.35,0.8,0.8,0.8
512168,5.40349e+006,330.83,0.8,0.8,0.8
512292,5.4032e+006,310.99,0.8,0.8,0.8
512041,5.40317e+006,316.86,0.8,0.8,0.8
512507,5.40314e+006,312.71,0.8,0.8,0.8
512070,5.40326e+006,312.85,0.8,0.8,0.8
512312,5.40312e+006,326.04,0.8,0.8,0.8
512492,5.40346e+006,324.22,0.8,0.8,0.8
512419,5.40329e+006,306.94,0.8,0.8,0.8
512508,5.40345e+006,314.08,0.8,0.8,0.8
512306,5.40335e+006,324.96,0.8,0.8,0.8
512512,5.40333e+006,313.94,0.8,0.8,0.8
512261,5.40346e+006,337.62,0.8,0.8,0.8
512256,5.40326e+006,319.1,0.8,0.8,0.8
512199,5.40333e+006,311.63,0.8,0.8,0.8
512155,5.40323e+006,313.15,0.8,0.8,0.8
512467,5.40324e+006,307.1,0.8,0.8,0.8
512243,5.4034e+006,318.21,0.8,0.8,0.8
512390,5.40313e+006,323.07,0.8,0.8,0.8
512165,5.40334e+006,311.97,0.8,0.8,0.8
512046,5.40333e+006,323.75,0.8,0.8,0.8
512176,5.40325e+006,326.3,0.8,0.8,0.8
512342,5.40313e+006,318.03,0.8,0.8,0.8
512036,5.40347e+006,325.41,0.8,0.8,0.8
512453,5.4033e+006,322.48,0.8,0.8,0.8
512313,5.40317e+006,316.03,0.8,0.8,0.8
512459,5.4032e+006,304.67,0.8,0.8,0.8
512405,5.4034e+006,328.69,0.8,0.8,0.8
512099,5.40332e+006,311.67,0.8,0.8,0.8
512301,5.40339e+006,314.78,0.8,0.8,0.8
512482,5.40316e+006,302.81,0.8,0.8,0.8
512080,5.40348e+006,330.41,0.8,0.8,0.8
512138,5.40345e+006,334,0.8,0.8,0.8
512480,5.40335e+006,319.65,0.8,0.8,0.8
512252,5.40314e+006,309.82,0.8,0.8,0.8
512318,5.40339e+006,315.72,0.8,0.8,0.8
512198,5.40345e+006,331.69,0.8,0.8,0.8
512319,5.40312e+006,328.36,0.8,0.8,0.8
512520,5.40333e+006,317.91,0.8,0.8,0.8
512356,5.40317e+006,323.98,0.8,0.8,0.8
512538,5.40341e+006,307.21,0.8,0.8,0.8
512293,5.40331e+006,327.16,0.8,0.8,0.8
512440,5.40336e+006,322.94,0.8,0.8,0.8
512343,5.40341e+006,317.09,0.8,0.8,0.8
512246,5.40348e+006,329.67,0.8,0.8,0.8
512543,5.40316e+006,303.6,0.8,0.8,0.8
512351,5.40331e+006,317.61,0.8,0.8,0.8
512243,5.40328e+006,310.6,0.8,0.8,0.8
512319,5.40339e+006,316.07,0.8,0.8,0.8
512148,5.4033e+006,316.98,0.8,0.8,0.8
512524,5.40315e+006,304.22,0.8,0.8,0.8
512315,5.40328e+006,320.16,0.8,0.8,0.8
512341,5.40319e+006,328.03,0.8,0.8,0.8
512249,5.4033e+006,324.2,0.8,0.8,0.8
512031,5.40325e+006,314.26,0.8,0.8,0.8
512408,5.40324e+006,311.06,0.8,0.8,0.8
512482,5.40324e+006,305.1,0.8,0.8,0.8
512159,5.40341e+006,317.69,0.8,0.8,0.8
512231,5.40318e+006,332.48,0.8,0.8,0.8
512087,5.40322e+006,316.15,0.8,0.8,0.8
512045,5.40342e+006,315.29,0.8,0.8,0.8
512402,5.40328e+006,319.44,0.8,0.8,0.8
512339,5.40338e+006,328.03,0.8,0.8,0.8
512481,5.4032e+006,311.69,0.8,0.8,0.8
512105,5.40316e+006,313.37,0.8,0.8,0.8
512355,5.40327e+006,323.99,0.8,0.8,0.8
512387,5.40324e+006,316.4,0.8,0.8,0.8
512461,5.4035e+006,319.48,0.8,0.8,0.8
512499,5.4033e+006,333.55,0.8,0.8,0.8
512154,5.40315e+006,312.1,0.8,0.8,0.8
512225,5.40339e+006,329.15,0.8,0.8,0.8
512412,5.40346e+006,328.38,0.8,0.8,0.8
512215,5.40329e+006,327.97,0.8,0.8,0.8
512189,5.40335e+006,312.24,0.8,0.8,0.8
512244,5.4034e+006,321.57,0.8,0.8,0.8
512179,5.40346e+006,338.89,0.8,0.8,0.8
512336,5.40336e+006,313.44,0.8,0.8,0.8
512406,5.40338e+006,316.61,0.8,0.8,0.8
512230,5.40322e+006,310.5,0.8,0.8,0.8
512275,5.40349e+006,327.26,0.8,0.8,0.8
512370,5.4034e+006,327.94,0.8,0.8,0.8
512423,5.40318e+006,305.22,0.8,0.8,0.8
512176,5.40346e+006,326.95,0.8,0.8,0.8
512326,5.40313e+006,310.01,0.8,0.8,0.8
512080,5.40314e+006,320.35,0.8,0.8,0.8
512351,5.40323e+006,321.77,0.8,0.8,0.8
512322,5.40314e+006,309.97,0.8,0.8,0.8
512264,5.40328e+006,322.18,0.8,0.8,0.8
512309,5.40338e+006,329.19,0.8,0.8,0.8
512080,5.40338e+006,331.47,0.8,0.8,0.8
512164,5.40324e+006,316.64,0.8,0.8,0.8
512358,5.40329e+006,308.55,0.8,0.8,0.8
512181,5.40329e+006,320.28,0.8,0.8,0.8
512303,5.40328e+006,321.95,0.8,0.8,0.8
512186,5.40339e+006,331.61,0.8,0.8,0.8
512487,5.40337e+006,307.99,0.8,0.8,0.8
512508,5.40343e+006,307.87,0.8,0.8,0.8
512146,5.40327e+006,314.07,0.8,0.8,0.8
512339,5.40349e+006,336.83,0.8,0.8,0.8
512372,5.40321e+006,307.96,0.8,0.8,0.8
512114,5.40326e+006,311.46,0.8,0.8,0.8
512381,5.40337e+006,315.7,0.8,0.8,0.8
512116,5.40322e+006,316.74,0.8,0.8,0.8
512503,5.4033e+006,330.86,0.8,0.8,0.8
512430,5.40324e+006,305.25,0.8,0.8,0.8
512211,5.40348e+006,337.94,0.8,0.8,0.8
512083,5.40322e+006,313.87,0.8,0.8,0.8
512118,5.40349e+006,328.37,0.8,0.8,0.8
512288,5.40323e+006,322.36,0.8,0.8,0.8
512230,5.40324e+006,332.94,0.8,0.8,0.8
512148,5.40341e+006,329.48,0.8,0.8,0.8
512218,5.40324e+006,332.82,0.8,0.8,0.8
512242,5.40319e+006,309.12,0.8,0.8,0.8
512035,5.4034e+006,314.13,0.8,0.8,0.8
512314,5.40349e+006,326.66,0.8,0.8,0.8
512221,5.40316e+006,317.12,0.8,0.8,0.8
512428,5.40315e+006,314.1,0.8,0.8,0.8
512374,5.40321e+006,307.98,0.8,0.8,0.8
512370,5.40341e+006,319.76,0.8,0.8,0.8
512230,5.40316e+006,318.72,0.8,0.8,0.8
512142,5.40348e+006,335.55,0.8,0.8,0.8
512474,5.40344e+006,321.38,0.8,0.8,0.8
512067,5.40346e+006,327.11,0.8,0.8,0.8
512454,5.40324e+006,303.02,0.8,0.8,0.8
512040,5.40322e+006,333.31,0.8,0.8,0.8
512329,5.40314e+006,320.73,0.8,0.8,0.8
512306,5.40328e+006,323.1,0.8,0.8,0.8
512425,5.40333e+006,327.77,0.8,0.8,0.8
512172,5.40313e+006,312.04,0.8,0.8,0.8
512298,5.40326e+006,309.45,0.8,0.8,0.8
512227,5.40347e+006,336.34,0.8,0.8,0.8
512211,5.40317e+006,340.28,0.8,0.8,0.8
512265,5.40329e+006,322.25,0.8,0.8,0.8
512510,5.40336e+006,307,0.8,0.8,0.8
512419,5.40321e+006,318.13,0.8,0.8,0.8
512512,5.40334e+006,314.79,0.8,0.8,0.8
512355,5.40315e+006,309.24,0.8,0.8,0.8
512154,5.40347e+006,335.6,0.8,0.8,0.8
512427,5.40325e+006,318.72,0.8,0.8,0.8
512104,5.40327e+006,311.38,0.8,0.8,0.8
512054,5.40327e+006,323.7,0.8,0.8,0.8
512479,5.4033e+006,328.25,0.8,0.8,0.8
512260,5.40334e+006,321.23,0.8,0.8,0.8
512368,5.40335e+006,321.97,0.8,0.8,0.8
512210,5.40322e+006,310.72,0.8,0.8,0.8
512122,5.4034e+006,314.18,0.8,0.8,0.8
512448,5.40326e+006,317.43,0.8,0.8,0.8
512523,5.40344e+006,309.21,0.8,0.8,0.8
512200,5.40338e+006,314.04,0.8,0.8,0.8
512396,5.40317e+006,321.95,0.8,0.8,0.8
512056,5.40327e+006,313.1,0.8,0.8,0.8
512199,5.40344e+006,324.19,0.8,0.8,0.8
512104,5.40321e+006,337.65,0.8,0.8,0.8
512479,5.40321e+006,305.77,0.8,0.8,0.8
512173,5.40324e+006,322.08,0.8,0.8,0.8
512238,5.40338e+006,325.27,0.8,0.8,0.8
512327,5.40329e+006,320.8,0.8,0.8,0.8
512509,5.40328e+006,306.12,0.8,0.8,0.8
512099,5.40349e+006,328.22,0.8,0.8,0.8
512148,5.40313e+006,313.46,0.8,0.8,0.8
512231,5.40319e+006,324.46,0.8,0.8,0.8
512114,5.40344e+006,324.15,0.8,0.8,0.8
512030,5.40324e+006,319.16,0.8,0.8,0.8
512390,5.40344e+006,332.8,0.8,0.8,0.8
512031,5.40347e+006,318.97,0.8,0.8,0.8
512196,5.40315e+006,311.9,0.8,0.8,0.8
512425,5.4033e+006,317.98,0.8,0.8,0.8
512251,5.40349e+006,332.15,0.8,0.8,0.8
512093,5.40327e+006,311.35,0.8,0.8,0.8
512527,5.4032e+006,314.6,0.8,0.8,0.8
512529,5.40338e+006,307.04,0.8,0.8,0.8
512062,5.40331e+006,316.3,0.8,0.8,0.8
512344,5.40319e+006,326.01,0.8,0.8,0.8
512090,5.40346e+006,321.68,0.8,0.8,0.8
512148,5.40336e+006,313.12,0.8,0.8,0.8
512143,5.40315e+006,312.64,0.8,0.8,0.8
512135,5.40319e+006,311.83,0.8,0.8,0.8
512060,5.40314e+006,315,0.8,0.8,0.8
512332,5.40337e+006,326.54,0.8,0.8,0.8
512069,5.40324e+006,317.28,0.8,0.8,0.8
512080,5.40313e+006,324.4,0.8,0.8,0.8
512400,5.40339e+006,321.4,0.8,0.8,0.8
512087,5.40324e+006,313.69,0.8,0.8,0.8
512416,5.40313e+006,321.02,0.8,0.8,0.8
512375,5.40317e+006,327.21,0.8,0.8,0.8
512139,5.40338e+006,313.5,0.8,0.8,0.8
512138,5.40337e+006,313.43,0.8,0.8,0.8
512101,5.40313e+006,339.26,0.8,0.8,0.8
512445,5.40345e+006,323.38,0.8,0.8,0.8
512338,5.40339e+006,316.45,0.8,0.8,0.8
512360,5.40324e+006,322.02,0.8,0.8,0.8
512465,5.40331e+006,323.31,0.8,0.8,0.8
512088,5.4035e+006,334.58,0.8,0.8,0.8
512461,5.40336e+006,316.36,0.8,0.8,0.8
512125,5.40318e+006,318.87,0.8,0.8,0.8
512138,5.40317e+006,331.06,0.8,0.8,0.8
512202,5.40328e+006,318.97,0.8,0.8,0.8
512247,5.40331e+006,316.12,0.8,0.8,0.8
512356,5.40338e+006,322.64,0.8,0.8,0.8
512502,5.40341e+006,314.5,0.8,0.8,0.8
512034,5.4035e+006,323.14,0.8,0.8,0.8
512521,5.40313e+006,311.81,0.8,0.8,0.8
512143,5.40317e+006,312.25,0.8,0.8,0.8
512253,5.40347e+006,335.26,0.8,0.8,0.8
512542,5.40349e+006,326.06,0.8,0.8,0.8
512407,5.40327e+006,318.1,0.8,0.8,0.8
512240,5.40342e+006,320.2,0.8,0.8,0.8
512533,5.40326e+006,304.18,0.8,0.8,0.8
512181,5.40317e+006,336.34,0.8,0.8,0.8
512416,5.4032e+006,317.45,0.8,0.8,0.8
512131,5.40343e+006,335.05,0.8,0.8,0.8
512422,5.40314e+006,306.13,0.8,0.8,0.8
512420,5.40343e+006,314.53,0.8,0.8,0.8
512415,5.40332e+006,309.45,0.8,0.8,0.8
512200,5.40348e+006,341.87,0.8,0.8,0.8
512070,5.40325e+006,316.87,0.8,0.8,0.8
512038,5.40329e+006,313.95,0.8,0.8,0.8
512094,5.4032e+006,324.6,0.8,0.8,0.8
512164,5.40323e+006,320.24,0.8,0.8,0.8
512466,5.40323e+006,304.38,0.8,0.8,0.8
512265,5.40344e+006,333.68,0.8,0.8,0.8
512120,5.40348e+006,346.18,0.8,0.8,0.8
512383,5.40341e+006,326.25,0.8,0.8,0.8
512457,5.40332e+006,323.75,0.8,0.8,0.8
512222,5.40319e+006,309.49,0.8,0.8,0.8
512302,5.40329e+006,322.2,0.8,0.8,0.8
512529,5.40349e+006,331.11,0.8,0.8,0.8
512246,5.40313e+006,316.49,0.8,0.8,0.8
512524,5.40323e+006,304.05,0.8,0.8,0.8
512145,5.40345e+006,336.58,0.8,0.8,0.8
512225,5.40345e+006,337.92,0.8,0.8,0.8
512112,5.40329e+006,311.24,0.8,0.8,0.8
512102,5.40343e+006,331.56,0.8,0.8,0.8
512186,5.40342e+006,318.03,0.8,0.8,0.8
512205,5.40341e+006,317.88,0.8,0.8,0.8
512374,5.40329e+006,308.3,0.8,0.8,0.8
512205,5.40331e+006,326,0.8,0.8,0.8
512494,5.40347e+006,330.1,0.8,0.8,0.8
512488,5.40334e+006,328.08,0.8,0.8,0.8
512336,5.4032e+006,308.55,0.8,0.8,0.8
512398,5.40343e+006,315.22,0.8,0.8,0.8
512312,5.40334e+006,310.25,0.8,0.8,0.8
512484,5.4033e+006,324.84,0.8,0.8,0.8
512116,5.40337e+006,314.16,0.8,0.8,0.8
512125,5.40328e+006,329.38,0.8,0.8,0.8
512068,5.40321e+006,329.07,0.8,0.8,0.8
512506,5.40321e+006,303.77,0.8,0.8,0.8
512373,5.40335e+006,315.93,0.8,0.8,0.8
512294,5.40341e+006,328.52,0.8,0.8,0.8
512280,5.40337e+006,312.95,0.8,0.8,0.8
512367,5.40346e+006,332.55,0.8,0.8,0.8
512027,5.40327e+006,323.69,0.8,0.8,0.8
512384,5.40329e+006,308.18,0.8,0.8,0.8
512524,5.40314e+006,313.94,0.8,0.8,0.8
512411,5.40349e+006,317.69,0.8,0.8,0.8
512101,5.40339e+006,331.56,0.8,0.8,0.8
512339,5.40348e+006,331.91,0.8,0.8,0.8
512269,5.40333e+006,323.49,0.8,0.8,0.8
512478,5.40336e+006,321.72,0.8,0.8,0.8
512393,5.40348e+006,316.97,0.8,0.8,0.8
512060,5.40322e+006,333.5,0.8,0.8,0.8
512468,5.40349e+006,315.99,0.8,0.8,0.8
512130,5.40344e+006,333.91,0.8,0.8,0.8
512483,5.40347e+006,325.05,0.8,0.8,0.8
512075,5.4034e+006,331.47,0.8,0.8,0.8
512065,5.40347e+006,329.03,0.8,0.8,0.8
512440,5.40317e+006,305.27,0.8,0.8,0.8
512469,5.40333e+006,329.16,0.8,0.8,0.8
512326,5.4033e+006,309.61,0.8,0.8,0.8
512232,5.40325e+006,334.04,0.8,0.8,0.8
512156,5.40322e+006,315.4,0.8,0.8,0.8
512180,5.40333e+006,311.57,0.8,0.8,0.8
512172,5.40334e+006,312,0.8,0.8,0.8
512254,5.40319e+006,309.05,0.8,0.8,0.8
512161,5.40335e+006,312.65,0.8,0.8,0.8
512523,5.40335e+006,306.35,0.8,0.8,0.8
512542,5.40349e+006,320.86,0.8,0.8,0.8
512182,5.40348e+006,339.02,0.8,0.8,0.8
512534,5.40324e+006,303.8,0.8,0.8,0.8
512483,5.40331e+006,327.22,0.8,0.8,0.8
512382,5.40323e+006,311.28,0.8,0.8,0.8
512206,5.40314e+006,335.17,0.8,0.8,0.8
512067,5.40319e+006,314.57,0.8,0.8,0.8
512357,5.40316e+006,308.88,0.8,0.8,0.8
512070,5.40334e+006,311.64,0.8,0.8,0.8
512208,5.40349e+006,334.55,0.8,0.8,0.8
512370,5.40317e+006,326.93,0.8,0.8,0.8
512258,5.40327e+006,319.04,0.8,0.8,0.8
512178,5.40343e+006,331.67,0.8,0.8,0.8
512436,5.40316e+006,320.7,0.8,0.8,0.8
512384,5.40322e+006,323.97,0.8,0.8,0.8
512387,5.4034e+006,327.29,0.8,0.8,0.8
512063,5.40345e+006,318.2,0.8,0.8,0.8
512259,5.40324e+006,310.11,0.8,0.8,0.8
512077,5.40345e+006,318.35,0.8,0.8,0.8
512258,5.40314e+006,320.7,0.8,0.8,0.8
512394,5.40317e+006,307.36,0.8,0.8,0.8
512344,5.4032e+006,308.11,0.8,0.8,0.8
512096,5.40332e+006,311.6,0.8,0.8,0.8
