x,y,z,r,g,b
513127,5.40332e+006,318.39,0.8,0.8,0.8
513199,5.40333e+006,291.83,0.8,0.8,0.8
513400,5.40371e+006,295.09,0.8,0.8,0.8
513310,5.40352e+006,294.19,0.8,0.8,0.8
513289,5.40336e+006,291.01,0.8,0.8,0.8
513602,5.40323e+006,290.27,0.8,0.8,0.8
513436,5.40335e+006,286.81,0.8,0.8,0.8
513163,5.40352e+006,294.21,0.8,0.8,0.8
513272,5.40349e+006,294.53,0.8,0.8,0.8
513432,5.40348e+006,304.78,0.8,0.8,0.8
513449,5.40351e+006,304.53,0.8,0.8,0.8
513510,5.40331e+006,287.7,0.8,0.8,0.8
513374,5.40355e+006,299.32,0.8,0.8,0.8
513371,5.40362e+006,294.39,0.8,0.8,0.8
513189,5.40353e+006,301.78,0.8,0.8,0.8
513482,5.40371e+006,294.34,0.8,0.8,0.8
513362,5.40358e+006,301.6,0.8,0.8,0.8
513401,5.40364e+006,294.33,0.8,0.8,0.8
513132,5.40341e+006,317,0.8,0.8,0.8
513613,5.40361e+006,287.17,0.8,0.8,0.8
513508,5.40326e+006,289.33,0.8,0.8,0.8
513591,5.4036e+006,301.31,0.8,0.8,0.8
513211,5.40374e+006,332.32,0.8,0.8,0.8
513216,5.40363e+006,297.07,0.8,0.8,0.8
513483,5.40348e+006,289.28,0.8,0.8,0.8
513241,5.40325e+006,314.25,0.8,0.8,0.8
513605,5.40354e+006,303.71,0.8,0.8,0.8
513512,5.40369e+006,294.32,0.8,0.8,0.8
513493,5.40374e+006,294.52,0.8,0.8,0.8
513123,5.40322e+006,294.08,0.8,0.8,0.8
513447,5.4034e+006,296.53,0.8,0.8,0.8
513502,5.40341e+006,305.94,0.8,0.8,0.8
513169,5.40352e+006,294.41,0.8,0.8,0.8
513367,5.40346e+006,301.79,0.8,0.8,0.8
513291,5.40334e+006,291.1,0.8,0.8,0.8
513542,5.40344e+006,302.05,0.8,0.8,0.8
513325,5.40335e+006,290.92,0.8,0.8,0.8
513511,5.40362e+006,294.35,0.8,0.8,0.8
513556,5.40328e+006,316.22,0.8,0.8,0.8
513282,5.40327e+006,314.31,0.8,0.8,0.8
513301,5.40331e+006,306.84,0.8,0.8,0.8
513125,5.40354e+006,303.31,0.8,0.8,0.8
513291,5.40321e+006,310.76,0.8,0.8,0.8
513496,5.40347e+006,289.28,0.8,0.8,0.8
513428,5.40332e+006,292.44,0.8,0.8,0.8
513156,5.40329e+006,292.69,0.8,0.8,0.8
513388,5.40345e+006,294.14,0.8,0.8,0.8
513340,5.40357e+006,301.63,0.8,0.8,0.8
513530,5.40353e+006,288.78,0.8,0.8,0.8
513588,5.40343e+006,287.56,0.8,0.8,0.8
513327,5.40336e+006,291.01,0.8,0.8,0.8
513539,5.4033e+006,309.27,0.8,0.8,0.8
513395,5.40357e+006,304.71,0.8,0.8,0.8
513579,5.40326e+006,308.86,0.8,0.8,0.8
513614,5.40342e+006,287.53,0.8,0.8,0.8
513449,5.40338e+006,290.66,0.8,0.8,0.8
513337,5.40356e+006,304.61,0.8,0.8,0.8
513392,5.40372e+006,329.92,0.8,0.8,0.8
513335,5.40339e+006,291.04,0.8,0.8,0.8
513465,5.40363e+006,294.91,0.8,0.8,0.8
513485,5.40354e+006,301.49,0.8,0.8,0.8
513543,5.40347e+006,288.05,0.8,0.8,0.8
513188,5.40323e+006,330.51,0.8,0.8,0.8
513359,5.40346e+006,301.76,0.8,0.8,0.8
513194,5.40361e+006,325.95,0.8,0.8,0.8
513313,5.40373e+006,301.28,0.8,0.8,0.8
513527,5.40366e+006,294.26,0.8,0.8,0.8
513607,5.40356e+006,298.82,0.8,0.8,0.8
513157,5.40327e+006,292.89,0.8,0.8,0.8
513352,5.40336e+006,290.76,0.8,0.8,0.8
513584,5.40352e+006,299.38,0.8,0.8,0.8
513191,5.40331e+006,292.14,0.8,0.8,0.8
513184,5.40353e+006,301.86,0.8,0.8,0.8
513270,5.40351e+006,294.45,0.8,0.8,0.8
513475,5.40343e+006,290.45,0.8,0.8,0.8
513231,5.40335e+006,303.72,0.8,0.8,0.8
513563,5.40339e+006,301.68,0.8,0.8,0.8
513616,5.40364e+006,300.61,0.8,0.8,0.8
513582,5.40371e+006,294.8,0.8,0.8,0.8
513544,5.4033e+006,312.89,0.8,0.8,0.8
513476,5.40335e+006,290.66,0.8,0.8,0.8
513405,5.4033e+006,289.98,0.8,0.8,0.8
513373,5.40351e+006,294.5,0.8,0.8,0.8
513287,5.40328e+006,291.52,0.8,0.8,0.8
513459,5.40369e+006,294.41,0.8,0.8,0.8
513425,5.40354e+006,304.78,0.8,0.8,0.8
513234,5.40321e+006,288.98,0.8,0.8,0.8
513234,5.40322e+006,289.53,0.8,0.8,0.8
513432,5.40336e+006,288.28,0.8,0.8,0.8
513325,5.40362e+006,330.14,0.8,0.8,0.8
513513,5.40324e+006,314,0.8,0.8,0.8
513365,5.40371e+006,295.94,0.8,0.8,0.8
513472,5.40375e+006,294.53,0.8,0.8,0.8
513230,5.40347e+006,292.9,0.8,0.8,0.8
513279,5.40341e+006,291.24,0.8,0.8,0.8
513420,5.40368e+006,295.37,0.8,0.8,0.8
513357,5.40364e+006,325.91,0.8,0.8,0.8
513433,5.40369e+006,294.51,0.8,0.8,0.8
513572,5.40333e+006,288.29,0.8,0.8,0.8
513254,5.40355e+006,296.63,0.8,0.8,0.8
513381,5.40323e+006,310.03,0.8,0.8,0.8
513285,5.40329e+006,312.49,0.8,0.8,0.8
513569,5.40328e+006,311.32,0.8,0.8,0.8
513267,5.4034e+006,291.33,0.8,0.8,0.8
513510,5.40333e+006,301,0.8,0.8,0.8
513170,5.40342e+006,321.81,0.8,0.8,0.8
513618,5.40325e+006,306.3,0.8,0.8,0.8
513139,5.40334e+006,293.22,0.8,0.8,0.8
513178,5.40363e+006,321.12,0.8,0.8,0.8
513612,5.40351e+006,298.87,0.8,0.8,0.8
513126,5.40326e+006,293.61,0.8,0.8,0.8
513457,5.40322e+006,289.15,0.8,0.8,0.8
513302,5.40366e+006,307.99,0.8,0.8,0.8
513445,5.40362e+006,294.25,0.8,0.8,0.8
513467,5.40355e+006,301.52,0.8,0.8,0.8
513542,5.40345e+006,289.35,0.8,0.8,0.8
513359,5.40365e+006,325.93,0.8,0.8,0.8
513454,5.40347e+006,304.68,0.8,0.8,0.8
513182,5.40337e+006,317.95,0.8,0.8,0.8
513142,5.40341e+006,293.02,0.8,0.8,0.8
513446,5.40339e+006,289.79,0.8,0.8,0.8
513178,5.40364e+006,320.57,0.8,0.8,0.8
513448,5.4032e+006,290.74,0.8,0.8,0.8
513318,5.40353e+006,295.43,0.8,0.8,0.8
513620,5.40369e+006,286.86,0.8,0.8,0.8
513576,5.40366e+006,294.25,0.8,0.8,0.8
513625,5.40321e+006,291.17,0.8,0.8,0.8
513227,5.40374e+006,303.16,0.8,0.8,0.8
513556,5.40358e+006,288.13,0.8,0.8,0.8
513369,5.40351e+006,298.6,0.8,0.8,0.8
513196,5.40356e+006,294.85,0.8,0.8,0.8
513292,5.40341e+006,307.8,0.8,0.8,0.8
513514,5.40342e+006,298.7,0.8,0.8,0.8
513204,5.40344e+006,292.45,0.8,0.8,0.8
513560,5.40324e+006,293.71,0.8,0.8,0.8
513454,5.40338e+006,289.23,0.8,0.8,0.8
513622,5.40362e+006,302.99,0.8,0.8,0.8
513451,5.40333e+006,298.05,0.8,0.8,0.8
513276,5.40373e+006,324.49,0.8,0.8,0.8
513377,5.40344e+006,301.53,0.8,0.8,0.8
513421,5.4035e+006,295.24,0.8,0.8,0.8
513173,5.40337e+006,318.96,0.8,0.8,0.8
513582,5.40375e+006,294.51,0.8,0.8,0.8
513537,5.40341e+006,296.84,0.8,0.8,0.8
513281,5.40341e+006,291.18,0.8,0.8,0.8
513547,5.40348e+006,288.28,0.8,0.8,0.8
513176,5.40372e+006,318.26,0.8,0.8,0.8
513504,5.40344e+006,288.94,0.8,0.8,0.8
513287,5.40349e+006,299.28,0.8,0.8,0.8
513630,5.40358e+006,288.18,0.8,0.8,0.8
513338,5.4035e+006,298.29,0.8,0.8,0.8
513447,5.40362e+006,304.49,0.8,0.8,0.8
513259,5.40361e+006,295.58,0.8,0.8,0.8
513209,5.40319e+006,299.16,0.8,0.8,0.8
513274,5.40322e+006,297.55,0.8,0.8,0.8
513420,5.40345e+006,304.75,0.8,0.8,0.8
513608,5.40335e+006,301.08,0.8,0.8,0.8
513543,5.40344e+006,297.3,0.8,0.8,0.8
513578,5.40349e+006,297.23,0.8,0.8,0.8
513158,5.40339e+006,303.83,0.8,0.8,0.8
513164,5.40363e+006,317.8,0.8,0.8,0.8
513609,5.40352e+006,312.46,0.8,0.8,0.8
513329,5.40366e+006,294.98,0.8,0.8,0.8
513467,5.40368e+006,295.39,0.8,0.8,0.8
513121,5.40359e+006,296.57,0.8,0.8,0.8
513373,5.4033e+006,290.28,0.8,0.8,0.8
513576,5.4034e+006,287.77,0.8,0.8,0.8
513161,5.40353e+006,294.2,0.8,0.8,0.8
513139,5.40325e+006,296.58,0.8,0.8,0.8
513458,5.40371e+006,295.45,0.8,0.8,0.8
513622,5.40364e+006,294.49,0.8,0.8,0.8
513387,5.40343e+006,301.74,0.8,0.8,0.8
513329,5.40372e+006,334.64,0.8,0.8,0.8
513384,5.40326e+006,313.3,0.8,0.8,0.8
513292,5.40342e+006,307.66,0.8,0.8,0.8
513169,5.40325e+006,292.89,0.8,0.8,0.8
513189,5.40331e+006,292.12,0.8,0.8,0.8
513439,5.40361e+006,301.28,0.8,0.8,0.8
513299,5.40361e+006,326.32,0.8,0.8,0.8
513237,5.40346e+006,292.65,0.8,0.8,0.8
513527,5.40343e+006,288.19,0.8,0.8,0.8
513256,5.40371e+006,302.1,0.8,0.8,0.8
513465,5.40326e+006,296.58,0.8,0.8,0.8
513174,5.40342e+006,322.32,0.8,0.8,0.8
513153,5.40324e+006,297.47,0.8,0.8,0.8
513297,5.40354e+006,307.94,0.8,0.8,0.8
513130,5.40356e+006,295.26,0.8,0.8,0.8
513367,5.40319e+006,299.14,0.8,0.8,0.8
513493,5.40365e+006,299.51,0.8,0.8,0.8
513391,5.40371e+006,332.77,0.8,0.8,0.8
513600,5.40365e+006,287.31,0.8,0.8,0.8
513568,5.40372e+006,301.36,0.8,0.8,0.8
513222,5.40375e+006,309,0.8,0.8,0.8
513308,5.40322e+006,310.76,0.8,0.8,0.8
513386,5.40326e+006,305,0.8,0.8,0.8
513573,5.40371e+006,295.17,0.8,0.8,0.8
513148,5.40357e+006,321.28,0.8,0.8,0.8
513218,5.40345e+006,302.92,0.8,0.8,0.8
513369,5.40323e+006,313.08,0.8,0.8,0.8
513120,5.40352e+006,292.01,0.8,0.8,0.8
513544,5.40341e+006,287.91,0.8,0.8,0.8
513566,5.40348e+006,298.16,0.8,0.8,0.8
513239,5.4036e+006,296.09,0.8,0.8,0.8
513143,5.40322e+006,299.35,0.8,0.8,0.8
513399,5.40328e+006,290.29,0.8,0.8,0.8
513581,5.40343e+006,293.9,0.8,0.8,0.8
513490,5.40369e+006,295.4,0.8,0.8,0.8
513231,5.40351e+006,294.52,0.8,0.8,0.8
513430,5.40362e+006,304.42,0.8,0.8,0.8
513202,5.40338e+006,300.94,0.8,0.8,0.8
513356,5.40362e+006,295.26,0.8,0.8,0.8
513304,5.40345e+006,304,0.8,0.8,0.8
513486,5.40332e+006,290.64,0.8,0.8,0.8
513346,5.40327e+006,293.36,0.8,0.8,0.8
513575,5.40325e+006,295.04,0.8,0.8,0.8
513273,5.4036e+006,295.55,0.8,0.8,0.8
513543,5.40323e+006,311.71,0.8,0.8,0.8
513405,5.40363e+006,301.65,0.8,0.8,0.8
513296,5.40332e+006,311.32,0.8,0.8,0.8
513590,5.40329e+006,288.85,0.8,0.8,0.8
513156,5.4036e+006,303.64,0.8,0.8,0.8
513413,5.40346e+006,301.83,0.8,0.8,0.8
513570,5.40324e+006,295.09,0.8,0.8,0.8
513265,5.40342e+006,291.4,0.8,0.8,0.8
513262,5.40338e+006,291.14,0.8,0.8,0.8
513251,5.40361e+006,295.12,0.8,0.8,0.8
513243,5.40363e+006,297.6,0.8,0.8,0.8
513266,5.40345e+006,310.44,0.8,0.8,0.8
513521,5.40323e+006,306.37,0.8,0.8,0.8
513532,5.40323e+006,315.71,0.8,0.8,0.8
513629,5.40319e+006,294.31,0.8,0.8,0.8
513279,5.40336e+006,290.99,0.8,0.8,0.8
513460,5.40352e+006,304.72,0.8,0.8,0.8
513550,5.4036e+006,292.62,0.8,0.8,0.8
513439,5.40336e+006,289.55,0.8,0.8,0.8
513515,5.40358e+006,304.7,0.8,0.8,0.8
513374,5.40376e+006,295.07,0.8,0.8,0.8
513350,5.40358e+006,294.47,0.8,0.8,0.8
513260,5.40343e+006,291.47,0.8,0.8,0.8
513499,5.40361e+006,294.91,0.8,0.8,0.8
513426,5.40338e+006,290.45,0.8,0.8,0.8
513237,5.40358e+006,295.6,0.8,0.8,0.8
513442,5.40339e+006,289.76,0.8,0.8,0.8
513329,5.40323e+006,297.55,0.8,0.8,0.8
513558,5.40365e+006,299.45,0.8,0.8,0.8
513220,5.4036e+006,295.66,0.8,0.8,0.8
513562,5.40324e+006,292.42,0.8,0.8,0.8
513261,5.40354e+006,296.31,0.8,0.8,0.8
513340,5.40364e+006,329.91,0.8,0.8,0.8
513549,5.40356e+006,288.51,0.8,0.8,0.8
513171,5.40365e+006,321.88,0.8,0.8,0.8
513166,5.40358e+006,327.04,0.8,0.8,0.8
513511,5.40366e+006,299.97,0.8,0.8,0.8
513512,5.40338e+006,311.98,0.8,0.8,0.8
513252,5.40338e+006,291.79,0.8,0.8,0.8
513509,5.40326e+006,301.78,0.8,0.8,0.8
513246,5.40339e+006,291.28,0.8,0.8,0.8
513214,5.40325e+006,294.49,0.8,0.8,0.8
513184,5.40353e+006,295.01,0.8,0.8,0.8
513305,5.4033e+006,310.15,0.8,0.8,0.8
513413,5.40353e+006,294.35,0.8,0.8,0.8
513302,5.40353e+006,307.79,0.8,0.8,0.8
513627,5.40327e+006,288.87,0.8,0.8,0.8
513393,5.40327e+006,313.18,0.8,0.8,0.8
513379,5.4033e+006,290.32,0.8,0.8,0.8
513487,5.40359e+006,294.51,0.8,0.8,0.8
513463,5.40376e+006,296.28,0.8,0.8,0.8
513131,5.40337e+006,318.95,0.8,0.8,0.8
513557,5.40338e+006,308.95,0.8,0.8,0.8
513565,5.40334e+006,302.61,0.8,0.8,0.8
513610,5.40327e+006,299.39,0.8,0.8,0.8
513354,5.40331e+006,290.5,0.8,0.8,0.8
513289,5.40328e+006,306.51,0.8,0.8,0.8
513269,5.40359e+006,295.87,0.8,0.8,0.8
513548,5.40321e+006,290.08,0.8,0.8,0.8
513167,5.40324e+006,304.67,0.8,0.8,0.8
513560,5.40352e+006,288.26,0.8,0.8,0.8
513578,5.40346e+006,287.22,0.8,0.8,0.8
513316,5.40353e+006,301.7,0.8,0.8,0.8
513176,5.40362e+006,321.96,0.8,0.8,0.8
513523,5.4034e+006,296.91,0.8,0.8,0.8
513372,5.40319e+006,299.26,0.8,0.8,0.8
513542,5.40355e+006,288.67,0.8,0.8,0.8
513572,5.40361e+006,287.86,0.8,0.8,0.8
513471,5.40356e+006,301.54,0.8,0.8,0.8
513384,5.40355e+006,304.6,0.8,0.8,0.8
513251,5.40351e+006,294.36,0.8,0.8,0.8
513185,5.40331e+006,292.21,0.8,0.8,0.8
513165,5.40347e+006,294.01,0.8,0.8,0.8
513544,5.40365e+006,294.31,0.8,0.8,0.8
513282,5.40338e+006,291.25,0.8,0.8,0.8
513569,5.40335e+006,307.7,0.8,0.8,0.8
513217,5.40374e+006,306.7,0.8,0.8,0.8
513445,5.40341e+006,292.06,0.8,0.8,0.8
513157,5.40333e+006,293.87,0.8,0.8,0.8
513595,5.40331e+006,314.05,0.8,0.8,0.8
513571,5.40334e+006,300.93,0.8,0.8,0.8
513492,5.40352e+006,301.5,0.8,0.8,0.8
513608,5.40347e+006,287.11,0.8,0.8,0.8
513390,5.40329e+006,290.21,0.8,0.8,0.8
513164,5.40339e+006,292.78,0.8,0.8,0.8
513268,5.40365e+006,296.12,0.8,0.8,0.8
513323,5.40351e+006,295.22,0.8,0.8,0.8
513605,5.40321e+006,290.42,0.8,0.8,0.8
513251,5.40324e+006,315.41,0.8,0.8,0.8
513403,5.4036e+006,301.46,0.8,0.8,0.8
513578,5.40351e+006,293.84,0.8,0.8,0.8
513430,5.40328e+006,291.1,0.8,0.8,0.8
513588,5.40369e+006,294.27,0.8,0.8,0.8
513540,5.40344e+006,291.2,0.8,0.8,0.8
513528,5.40366e+006,294.32,0.8,0.8,0.8
513340,5.40344e+006,313.81,0.8,0.8,0.8
513281,5.40347e+006,313.26,0.8,0.8,0.8
513185,5.40373e+006,302.22,0.8,0.8,0.8
513389,5.40363e+006,304.64,0.8,0.8,0.8
513244,5.4034e+006,291.67,0.8,0.8,0.8
513209,5.40325e+006,292.04,0.8,0.8,0.8
513529,5.40348e+006,288.61,0.8,0.8,0.8
513325,5.40327e+006,295.8,0.8,0.8,0.8
513416,5.40355e+006,301.7,0.8,0.8,0.8
513506,5.40334e+006,286.8,0.8,0.8,0.8
513536,5.40367e+006,299.9,0.8,0.8,0.8
513282,5.4032e+006,290.72,0.8,0.8,0.8
513261,5.40361e+006,294.86,0.8,0.8,0.8
513569,5.40346e+006,296.61,0.8,0.8,0.8
513226,5.40361e+006,296.09,0.8,0.8,0.8
513544,5.40352e+006,292.76,0.8,0.8,0.8
513369,5.40324e+006,301.2,0.8,0.8,0.8
513514,5.40346e+006,296.08,0.8,0.8,0.8
513369,5.40362e+006,301.51,0.8,0.8,0.8
513163,5.40341e+006,301.86,0.8,0.8,0.8
513416,5.4032e+006,290.16,0.8,0.8,0.8
513151,5.40336e+006,299.88,0.8,0.8,0.8
513400,5.40356e+006,298.58,0.8,0.8,0.8
513266,5.40339e+006,303.49,0.8,0.8,0.8
513170,5.40371e+006,318.95,0.8,0.8,0.8
513273,5.40322e+006,293.03,0.8,0.8,0.8
513547,5.40329e+006,309.98,0.8,0.8,0.8
513424,5.40321e+006,289.71,0.8,0.8,0.8
513296,5.40355e+006,295.52,0.8,0.8,0.8
513502,5.4033e+006,289.75,0.8,0.8,0.8
513360,5.40357e+006,301.32,0.8,0.8,0.8
513607,5.40327e+006,298.33,0.8,0.8,0.8
513321,5.40342e+006,303.4,0.8,0.8,0.8
513379,5.40343e+006,304.56,0.8,0.8,0.8
513617,5.40329e+006,297.09,0.8,0.8,0.8
513572,5.40325e+006,295.98,0.8,0.8,0.8
513337,5.40365e+006,305.19,0.8,0.8,0.8
513234,5.4032e+006,301.36,0.8,0.8,0.8
513348,5.40329e+006,290.52,0.8,0.8,0.8
513338,5.40361e+006,294.95,0.8,0.8,0.8
513289,5.40346e+006,312.3,0.8,0.8,0.8
513202,5.40345e+006,292.88,0.8,0.8,0.8
513481,5.40339e+006,289.13,0.8,0.8,0.8
513337,5.40323e+006,290.35,0.8,0.8,0.8
513478,5.40332e+006,290.44,0.8,0.8,0.8
513507,5.40348e+006,289.11,0.8,0.8,0.8
513602,5.40353e+006,310.66,0.8,0.8,0.8
513143,5.40374e+006,305.07,0.8,0.8,0.8
513423,5.40355e+006,294.35,0.8,0.8,0.8
513606,5.40324e+006,290.27,0.8,0.8,0.8
513246,5.4035e+006,294.32,0.8,0.8,0.8
513242,5.4034e+006,291.43,0.8,0.8,0.8
513274,5.40374e+006,320.45,0.8,0.8,0.8
513247,5.40346e+006,293.28,0.8,0.8,0.8
513340,5.40353e+006,298.55,0.8,0.8,0.8
513189,5.40353e+006,294.47,0.8,0.8,0.8
513622,5.40334e+006,287.96,0.8,0.8,0.8
513593,5.40319e+006,298.43,0.8,0.8,0.8
513456,5.40326e+006,287.02,0.8,0.8,0.8
513219,5.40332e+006,313.8,0.8,0.8,0.8
513573,5.4033e+006,318.34,0.8,0.8,0.8
513188,5.40321e+006,307.17,0.8,0.8,0.8
513288,5.40354e+006,299.45,0.8,0.8,0.8
513419,5.40342e+006,304.64,0.8,0.8,0.8
513414,5.40341e+006,304.55,0.8,0.8,0.8
513379,5.40351e+006,295.26,0.8,0.8,0.8
513232,5.40338e+006,291.27,0.8,0.8,0.8
513477,5.40324e+006,299.35,0.8,0.8,0.8
513372,5.40371e+006,295.13,0.8,0.8,0.8
513614,5.40336e+006,304.65,0.8,0.8,0.8
513161,5.40341e+006,301.84,0.8,0.8,0.8
513318,5.40366e+006,296.53,0.8,0.8,0.8
513380,5.40346e+006,304.58,0.8,0.8,0.8
513335,5.40375e+006,333.35,0.8,0.8,0.8
513419,5.40372e+006,295.54,0.8,0.8,0.8
513535,5.40363e+006,294.85,0.8,0.8,0.8
513516,5.40357e+006,304.54,0.8,0.8,0.8
513256,5.40374e+006,303.45,0.8,0.8,0.8
513218,5.40354e+006,299.62,0.8,0.8,0.8
513156,5.4034e+006,292.95,0.8,0.8,0.8
513517,5.40323e+006,315.68,0.8,0.8,0.8
513206,5.40327e+006,312.73,0.8,0.8,0.8
513275,5.40349e+006,294.8,0.8,0.8,0.8
513359,5.40329e+006,300.3,0.8,0.8,0.8
513327,5.40325e+006,314.08,0.8,0.8,0.8
513318,5.40365e+006,301.04,0.8,0.8,0.8
513208,5.40374e+006,332.29,0.8,0.8,0.8
513510,5.40325e+006,304.52,0.8,0.8,0.8
513524,5.4034e+006,291.86,0.8,0.8,0.8
513498,5.4036e+006,294.93,0.8,0.8,0.8
513188,5.40371e+006,303.63,0.8,0.8,0.8
513227,5.4035e+006,294.28,0.8,0.8,0.8
513416,5.40356e+006,304.56,0.8,0.8,0.8
513368,5.40375e+006,322.65,0.8,0.8,0.8
513493,5.40357e+006,294.42,0.8,0.8,0.8
513171,5.40365e+006,321.38,0.8,0.8,0.8
513224,5.40373e+006,302.76,0.8,0.8,0.8
513342,5.40325e+006,302.65,0.8,0.8,0.8
513601,5.4037e+006,294.26,0.8,0.8,0.8
513576,5.4032e+006,289.74,0.8,0.8,0.8
513190,5.4034e+006,306.88,0.8,0.8,0.8
513556,5.40356e+006,288.39,0.8,0.8,0.8
513504,5.40327e+006,289.38,0.8,0.8,0.8
513482,5.40359e+006,304.59,0.8,0.8,0.8
513229,5.40376e+006,314.27,0.8,0.8,0.8
513242,5.40371e+006,302.34,0.8,0.8,0.8
513508,5.40373e+006,294.48,0.8,0.8,0.8
513453,5.40321e+006,292.54,0.8,0.8,0.8
513251,5.40372e+006,302.47,0.8,0.8,0.8
513593,5.40338e+006,287.78,0.8,0.8,0.8
513599,5.40344e+006,287.5,0.8,0.8,0.8
513377,5.40349e+006,298.44,0.8,0.8,0.8
513566,5.40341e+006,287.72,0.8,0.8,0.8
513315,5.40333e+006,295.21,0.8,0.8,0.8
513527,5.40332e+006,317.01,0.8,0.8,0.8
513576,5.40333e+006,305.97,0.8,0.8,0.8
513195,5.40349e+006,300.21,0.8,0.8,0.8
513451,5.40332e+006,287.16,0.8,0.8,0.8
513621,5.40339e+006,287.53,0.8,0.8,0.8
513461,5.40324e+006,299.12,0.8,0.8,0.8
513595,5.40346e+006,287.17,0.8,0.8,0.8
513182,5.40325e+006,306.18,0.8,0.8,0.8
513208,5.40357e+006,295.12,0.8,0.8,0.8
513605,5.40342e+006,294.09,0.8,0.8,0.8
513179,5.40374e+006,309.66,0.8,0.8,0.8
513328,5.40342e+006,303.51,0.8,0.8,0.8
513603,5.40362e+006,291.94,0.8,0.8,0.8
513502,5.40363e+006,295.33,0.8,0.8,0.8
513498,5.40337e+006,305.84,0.8,0.8,0.8
513233,5.40375e+006,318.31,0.8,0.8,0.8
513236,5.4037e+006,301.39,0.8,0.8,0.8
513548,5.40344e+006,295.18,0.8,0.8,0.8
513202,5.40367e+006,295.68,0.8,0.8,0.8
513303,5.40359e+006,295.08,0.8,0.8,0.8
513480,5.40326e+006,289.95,0.8,0.8,0.8
513568,5.40345e+006,302.45,0.8,0.8,0.8
513608,5.40362e+006,298.33,0.8,0.8,0.8
513249,5.4035e+006,294.26,0.8,0.8,0.8
513143,5.40343e+006,293.67,0.8,0.8,0.8
513339,5.40325e+006,302.89,0.8,0.8,0.8
513577,5.40326e+006,294.57,0.8,0.8,0.8
513155,5.40352e+006,294,0.8,0.8,0.8
513266,5.40353e+006,294.72,0.8,0.8,0.8
513458,5.40336e+006,291.3,0.8,0.8,0.8
513558,5.40336e+006,297.21,0.8,0.8,0.8
513330,5.40342e+006,303.56,0.8,0.8,0.8
513329,5.40355e+006,295.32,0.8,0.8,0.8
513396,5.40374e+006,329.73,0.8,0.8,0.8
513496,5.40367e+006,294.34,0.8,0.8,0.8
513405,5.40352e+006,294.35,0.8,0.8,0.8
513307,5.40321e+006,294.44,0.8,0.8,0.8
513469,5.40331e+006,289.97,0.8,0.8,0.8
513151,5.40334e+006,317.98,0.8,0.8,0.8
513213,5.40324e+006,291.68,0.8,0.8,0.8
513242,5.4036e+006,295.5,0.8,0.8,0.8
513625,5.40367e+006,291.23,0.8,0.8,0.8
513176,5.40346e+006,294.08,0.8,0.8,0.8
513293,5.40343e+006,306.8,0.8,0.8,0.8
513475,5.40333e+006,290.67,0.8,0.8,0.8
513552,5.40363e+006,300.01,0.8,0.8,0.8
513514,5.4035e+006,289.03,0.8,0.8,0.8
513303,5.40335e+006,294.62,0.8,0.8,0.8
513583,5.40333e+006,318.9,0.8,0.8,0.8
513523,5.40329e+006,298.67,0.8,0.8,0.8
513395,5.40363e+006,294.39,0.8,0.8,0.8
513619,5.40355e+006,299.14,0.8,0.8,0.8
513407,5.40376e+006,295.04,0.8,0.8,0.8
513609,5.40374e+006,299.59,0.8,0.8,0.8
513306,5.40345e+006,312.77,0.8,0.8,0.8
513573,5.40328e+006,290.6,0.8,0.8,0.8
513553,5.40344e+006,299.56,0.8,0.8,0.8
513600,5.40364e+006,294.74,0.8,0.8,0.8
513264,5.40359e+006,300.71,0.8,0.8,0.8
513559,5.40344e+006,299.79,0.8,0.8,0.8
513495,5.40323e+006,289.42,0.8,0.8,0.8
513561,5.4033e+006,316.15,0.8,0.8,0.8
513351,5.40327e+006,290.15,0.8,0.8,0.8
513306,5.4032e+006,290.47,0.8,0.8,0.8
513287,5.40363e+006,308.03,0.8,0.8,0.8
513446,5.4034e+006,299.32,0.8,0.8,0.8
513355,5.40326e+006,290.2,0.8,0.8,0.8
513376,5.40347e+006,304.57,0.8,0.8,0.8
513176,5.40375e+006,313.83,0.8,0.8,0.8
513351,5.4032e+006,299.28,0.8,0.8,0.8
513558,5.40356e+006,288.28,0.8,0.8,0.8
513161,5.40359e+006,329.53,0.8,0.8,0.8
513247,5.40367e+006,299.93,0.8,0.8,0.8
513272,5.40327e+006,321.87,0.8,0.8,0.8
513176,5.40343e+006,319.07,0.8,0.8,0.8
513570,5.40335e+006,294.33,0.8,0.8,0.8
513130,5.40361e+006,324.13,0.8,0.8,0.8
513189,5.40366e+006,321.12,0.8,0.8,0.8
513575,5.40346e+006,287.31,0.8,0.8,0.8
513562,5.40368e+006,298.88,0.8,0.8,0.8
513203,5.40361e+006,302.4,0.8,0.8,0.8
513444,5.40333e+006,287.26,0.8,0.8,0.8
513529,5.40371e+006,294.35,0.8,0.8,0.8
513434,5.40328e+006,290.08,0.8,0.8,0.8
513627,5.40332e+006,288.16,0.8,0.8,0.8
513437,5.40343e+006,301.43,0.8,0.8,0.8
513257,5.40364e+006,295.96,0.8,0.8,0.8
513147,5.40325e+006,294.66,0.8,0.8,0.8
513452,5.40346e+006,304.48,0.8,0.8,0.8
513542,5.4035e+006,288.44,0.8,0.8,0.8
513133,5.40349e+006,293.63,0.8,0.8,0.8
513267,5.40324e+006,314.27,0.8,0.8,0.8
513170,5.40322e+006,303.34,0.8,0.8,0.8
513368,5.40352e+006,304.6,0.8,0.8,0.8
513521,5.40341e+006,300.08,0.8,0.8,0.8
513219,5.40327e+006,312.78,0.8,0.8,0.8
513554,5.40337e+006,308.7,0.8,0.8,0.8
513529,5.40329e+006,289.24,0.8,0.8,0.8
513249,5.40349e+006,294.28,0.8,0.8,0.8
513458,5.40352e+006,304.71,0.8,0.8,0.8
513343,5.40362e+006,294.95,0.8,0.8,0.8
513608,5.40327e+006,302.11,0.8,0.8,0.8
513143,5.40346e+006,293.38,0.8,0.8,0.8
513504,5.40349e+006,291.06,0.8,0.8,0.8
513479,5.40336e+006,290.52,0.8,0.8,0.8
513256,5.40361e+006,295.56,0.8,0.8,0.8
513507,5.4032e+006,289.77,0.8,0.8,0.8
513438,5.40369e+006,294.47,0.8,0.8,0.8
513130,5.40329e+006,313.11,0.8,0.8,0.8
513471,5.40369e+006,294.34,0.8,0.8,0.8
513619,5.40361e+006,286.91,0.8,0.8,0.8
513247,5.40343e+006,291.76,0.8,0.8,0.8
513595,5.40352e+006,299.96,0.8,0.8,0.8
513500,5.40357e+006,301.66,0.8,0.8,0.8
513469,5.40325e+006,299.35,0.8,0.8,0.8
513500,5.4033e+006,289.93,0.8,0.8,0.8
513608,5.40324e+006,290.13,0.8,0.8,0.8
513245,5.40362e+006,297.2,0.8,0.8,0.8
513357,5.40324e+006,310.06,0.8,0.8,0.8
513229,5.40373e+006,316.91,0.8,0.8,0.8
513487,5.40322e+006,289.39,0.8,0.8,0.8
513482,5.4033e+006,290.17,0.8,0.8,0.8
513570,5.40339e+006,303.08,0.8,0.8,0.8
513506,5.40337e+006,288.28,0.8,0.8,0.8
513530,5.40355e+006,307.56,0.8,0.8,0.8
513398,5.40331e+006,290.2,0.8,0.8,0.8
513501,5.4037e+006,294.37,0.8,0.8,0.8
513620,5.40347e+006,299,0.8,0.8,0.8
513599,5.40351e+006,303.72,0.8,0.8,0.8
513606,5.40347e+006,287.07,0.8,0.8,0.8
513244,5.40338e+006,291.31,0.8,0.8,0.8
513614,5.40363e+006,301.37,0.8,0.8,0.8
513538,5.40322e+006,299.09,0.8,0.8,0.8
513352,5.40374e+006,330.1,0.8,0.8,0.8
513540,5.40328e+006,311.38,0.8,0.8,0.8
513525,5.40322e+006,320.01,0.8,0.8,0.8
513293,5.40361e+006,326.15,0.8,0.8,0.8
513540,5.4032e+006,308.56,0.8,0.8,0.8
513477,5.4034e+006,289.44,0.8,0.8,0.8
513509,5.40328e+006,289.45,0.8,0.8,0.8
513459,5.40363e+006,295.2,0.8,0.8,0.8
513375,5.40324e+006,310.18,0.8,0.8,0.8
513500,5.40362e+006,295.34,0.8,0.8,0.8
513516,5.40341e+006,301.26,0.8,0.8,0.8
513191,5.40335e+006,320.93,0.8,0.8,0.8
513580,5.40327e+006,314.58,0.8,0.8,0.8
513614,5.40348e+006,287.1,0.8,0.8,0.8
513324,5.40324e+006,290.43,0.8,0.8,0.8
513557,5.40346e+006,294.7,0.8,0.8,0.8
513166,5.40327e+006,292.67,0.8,0.8,0.8
513216,5.40338e+006,311.2,0.8,0.8,0.8
513558,5.40337e+006,306.8,0.8,0.8,0.8
513247,5.40346e+006,308.48,0.8,0.8,0.8
513321,5.40324e+006,295.02,0.8,0.8,0.8
513281,5.4036e+006,294.86,0.8,0.8,0.8
513395,5.40336e+006,306.29,0.8,0.8,0.8
513343,5.40343e+006,312.9,0.8,0.8,0.8
513343,5.40343e+006,312.12,0.8,0.8,0.8
513333,5.40371e+006,329.83,0.8,0.8,0.8
513590,5.40342e+006,298.18,0.8,0.8,0.8
513310,5.40353e+006,314.23,0.8,0.8,0.8
513518,5.40361e+006,295.29,0.8,0.8,0.8
513152,5.40363e+006,298.73,0.8,0.8,0.8
513368,5.40355e+006,298.54,0.8,0.8,0.8
513411,5.40324e+006,327.01,0.8,0.8,0.8
513259,5.40374e+006,303.93,0.8,0.8,0.8
513261,5.40319e+006,290.95,0.8,0.8,0.8
513480,5.40345e+006,289.27,0.8,0.8,0.8
513535,5.40365e+006,298.08,0.8,0.8,0.8
513539,5.40321e+006,314.62,0.8,0.8,0.8
513547,5.40321e+006,310.9,0.8,0.8,0.8
513487,5.40361e+006,294.41,0.8,0.8,0.8
513190,5.40338e+006,289.75,0.8,0.8,0.8
513280,5.40346e+006,310.58,0.8,0.8,0.8
513276,5.40322e+006,292.02,0.8,0.8,0.8
513395,5.4037e+006,318.61,0.8,0.8,0.8
513563,5.40319e+006,306.7,0.8,0.8,0.8
513450,5.40323e+006,289.44,0.8,0.8,0.8
513410,5.40359e+006,304.62,0.8,0.8,0.8
513535,5.40372e+006,294.4,0.8,0.8,0.8
513401,5.40326e+006,310.16,0.8,0.8,0.8
513391,5.40338e+006,316.15,0.8,0.8,0.8
513272,5.40345e+006,310.49,0.8,0.8,0.8
513394,5.40376e+006,295.01,0.8,0.8,0.8
513254,5.40355e+006,303.91,0.8,0.8,0.8
513239,5.40336e+006,309.88,0.8,0.8,0.8
513264,5.40358e+006,295.71,0.8,0.8,0.8
513318,5.4035e+006,301.51,0.8,0.8,0.8
513420,5.40374e+006,318.48,0.8,0.8,0.8
513493,5.40322e+006,289.54,0.8,0.8,0.8
513155,5.40353e+006,292.14,0.8,0.8,0.8
513192,5.40334e+006,318.58,0.8,0.8,0.8
513289,5.40331e+006,314.13,0.8,0.8,0.8
513482,5.40363e+006,299.53,0.8,0.8,0.8
513401,5.40325e+006,310.12,0.8,0.8,0.8
513427,5.4032e+006,300.48,0.8,0.8,0.8
513419,5.40336e+006,290.08,0.8,0.8,0.8
513348,5.40363e+006,324.79,0.8,0.8,0.8
513385,5.40337e+006,316.23,0.8,0.8,0.8
513436,5.40336e+006,296.97,0.8,0.8,0.8
513202,5.40339e+006,301.09,0.8,0.8,0.8
513607,5.40365e+006,287.14,0.8,0.8,0.8
513126,5.40335e+006,318.93,0.8,0.8,0.8
513488,5.40323e+006,302.49,0.8,0.8,0.8
513402,5.40322e+006,326.79,0.8,0.8,0.8
513490,5.4037e+006,295.34,0.8,0.8,0.8
513501,5.40323e+006,289.47,0.8,0.8,0.8
513538,5.40356e+006,288.43,0.8,0.8,0.8
513590,5.40335e+006,288.04,0.8,0.8,0.8
513454,5.40359e+006,304.56,0.8,0.8,0.8
513242,5.40359e+006,295.61,0.8,0.8,0.8
513601,5.40331e+006,311.94,0.8,0.8,0.8
513142,5.4033e+006,311.23,0.8,0.8,0.8
513466,5.4036e+006,303.14,0.8,0.8,0.8
513450,5.40327e+006,289.94,0.8,0.8,0.8
513192,5.40359e+006,298.22,0.8,0.8,0.8
513624,5.40363e+006,298.74,0.8,0.8,0.8
513499,5.40319e+006,289.37,0.8,0.8,0.8
513571,5.40323e+006,308.78,0.8,0.8,0.8
513186,5.40346e+006,293.15,0.8,0.8,0.8
513590,5.40319e+006,293.72,0.8,0.8,0.8
513385,5.40341e+006,314.24,0.8,0.8,0.8
513369,5.40335e+006,295.08,0.8,0.8,0.8
513459,5.40333e+006,286.94,0.8,0.8,0.8
513448,5.40361e+006,304.51,0.8,0.8,0.8
513350,5.40319e+006,309.4,0.8,0.8,0.8
513399,5.40333e+006,290.26,0.8,0.8,0.8
513560,5.40347e+006,298.96,0.8,0.8,0.8
513375,5.40359e+006,301.53,0.8,0.8,0.8
513474,5.40324e+006,289.39,0.8,0.8,0.8
513565,5.40326e+006,309.16,0.8,0.8,0.8
513247,5.40335e+006,309.97,0.8,0.8,0.8
513416,5.40371e+006,294.41,0.8,0.8,0.8
513214,5.40361e+006,295.94,0.8,0.8,0.8
513132,5.40356e+006,317.18,0.8,0.8,0.8
513482,5.40321e+006,289.44,0.8,0.8,0.8
513236,5.40321e+006,287.82,0.8,0.8,0.8
513431,5.40346e+006,294.36,0.8,0.8,0.8
513486,5.40369e+006,294.37,0.8,0.8,0.8
513200,5.40358e+006,296.42,0.8,0.8,0.8
513367,5.40329e+006,288.97,0.8,0.8,0.8
513293,5.40357e+006,295.45,0.8,0.8,0.8
513371,5.40339e+006,299.89,0.8,0.8,0.8
513463,5.40353e+006,304.62,0.8,0.8,0.8
513555,5.40349e+006,287.93,0.8,0.8,0.8
513461,5.40324e+006,302.55,0.8,0.8,0.8
513389,5.40337e+006,315.94,0.8,0.8,0.8
513399,5.40353e+006,304.59,0.8,0.8,0.8
513239,5.40356e+006,306.22,0.8,0.8,0.8
513522,5.40325e+006,289.03,0.8,0.8,0.8
513187,5.40347e+006,299.9,0.8,0.8,0.8
513483,5.40333e+006,290.75,0.8,0.8,0.8
513581,5.40326e+006,310.86,0.8,0.8,0.8
513614,5.4032e+006,290.7,0.8,0.8,0.8
513535,5.40343e+006,295.13,0.8,0.8,0.8
513525,5.40367e+006,298.18,0.8,0.8,0.8
513610,5.4036e+006,290.92,0.8,0.8,0.8
513491,5.40355e+006,294.34,0.8,0.8,0.8
513427,5.40333e+006,287.27,0.8,0.8,0.8
513502,5.4034e+006,302.63,0.8,0.8,0.8
513487,5.40364e+006,299.52,0.8,0.8,0.8
513200,5.40357e+006,294.96,0.8,0.8,0.8
513536,5.40341e+006,299.69,0.8,0.8,0.8
513339,5.40366e+006,303.52,0.8,0.8,0.8
513299,5.4035e+006,301.81,0.8,0.8,0.8
513275,5.40335e+006,291.1,0.8,0.8,0.8
513371,5.40346e+006,304.52,0.8,0.8,0.8
513361,5.40339e+006,303.89,0.8,0.8,0.8
513319,5.40329e+006,310.98,0.8,0.8,0.8
513448,5.40359e+006,304.47,0.8,0.8,0.8
513228,5.40364e+006,297.78,0.8,0.8,0.8
513463,5.40351e+006,301.42,0.8,0.8,0.8
513609,5.40354e+006,313.68,0.8,0.8,0.8
513539,5.40374e+006,294.36,0.8,0.8,0.8
513442,5.40331e+006,290.01,0.8,0.8,0.8
513177,5.40364e+006,321.9,0.8,0.8,0.8
513196,5.40352e+006,295.81,0.8,0.8,0.8
513196,5.40339e+006,300.95,0.8,0.8,0.8
513293,5.40364e+006,308.35,0.8,0.8,0.8
513441,5.40321e+006,289.53,0.8,0.8,0.8
513537,5.40348e+006,288.68,0.8,0.8,0.8
513448,5.40323e+006,289.25,0.8,0.8,0.8
513377,5.40324e+006,310.09,0.8,0.8,0.8
513533,5.40363e+006,294.95,0.8,0.8,0.8
513509,5.40337e+006,309.38,0.8,0.8,0.8
513269,5.40335e+006,311.69,0.8,0.8,0.8
513189,5.40347e+006,303.11,0.8,0.8,0.8
513394,5.40332e+006,290.41,0.8,0.8,0.8
513413,5.4033e+006,290.15,0.8,0.8,0.8
513571,5.4033e+006,313.23,0.8,0.8,0.8
513416,5.40362e+006,301.39,0.8,0.8,0.8
513348,5.40347e+006,301.53,0.8,0.8,0.8
513196,5.40339e+006,300.95,0.8,0.8,0.8
513456,5.4033e+006,289.91,0.8,0.8,0.8
513219,5.40327e+006,312.79,0.8,0.8,0.8
513348,5.40348e+006,301.63,0.8,0.8,0.8
513561,5.40329e+006,315.67,0.8,0.8,0.8
513497,5.40362e+006,295.41,0.8,0.8,0.8
513311,5.40333e+006,290.91,0.8,0.8,0.8
513239,5.40323e+006,291.44,0.8,0.8,0.8
513329,5.40373e+006,332.18,0.8,0.8,0.8
513486,5.40336e+006,291.65,0.8,0.8,0.8
513381,5.40347e+006,304.61,0.8,0.8,0.8
513320,5.40337e+006,290.87,0.8,0.8,0.8
513185,5.40365e+006,322.99,0.8,0.8,0.8
513288,5.40338e+006,291.19,0.8,0.8,0.8
513423,5.40355e+006,301.6,0.8,0.8,0.8
513461,5.40373e+006,294.43,0.8,0.8,0.8
513524,5.40352e+006,288.92,0.8,0.8,0.8
513208,5.40351e+006,294.33,0.8,0.8,0.8
513542,5.40328e+006,293.02,0.8,0.8,0.8
513272,5.40361e+006,294.82,0.8,0.8,0.8
513627,5.40363e+006,287.22,0.8,0.8,0.8
513294,5.40373e+006,301.14,0.8,0.8,0.8
513436,5.40358e+006,301.42,0.8,0.8,0.8
513364,5.40326e+006,294.73,0.8,0.8,0.8
513405,5.4032e+006,326.9,0.8,0.8,0.8
513325,5.40319e+006,306.76,0.8,0.8,0.8
513469,5.40353e+006,294.21,0.8,0.8,0.8
513228,5.40319e+006,300.39,0.8,0.8,0.8
513487,5.40334e+006,290.71,0.8,0.8,0.8
513200,5.40351e+006,294.52,0.8,0.8,0.8
513205,5.40361e+006,298.34,0.8,0.8,0.8
513485,5.40363e+006,298.3,0.8,0.8,0.8
513213,5.40338e+006,318.39,0.8,0.8,0.8
513576,5.4034e+006,287.83,0.8,0.8,0.8
513271,5.40374e+006,320.42,0.8,0.8,0.8
513134,5.40351e+006,293.87,0.8,0.8,0.8
513263,5.40369e+006,301.49,0.8,0.8,0.8
513316,5.40334e+006,295.43,0.8,0.8,0.8
513485,5.40327e+006,290.68,0.8,0.8,0.8
513495,5.40353e+006,294.34,0.8,0.8,0.8
513224,5.4035e+006,294.17,0.8,0.8,0.8
513349,5.40322e+006,310.05,0.8,0.8,0.8
513591,5.40358e+006,316.01,0.8,0.8,0.8
513595,5.40323e+006,290.11,0.8,0.8,0.8
513579,5.40347e+006,298.55,0.8,0.8,0.8
513194,5.40331e+006,292.07,0.8,0.8,0.8
513122,5.40376e+006,323.86,0.8,0.8,0.8
513548,5.40358e+006,288.18,0.8,0.8,0.8
513222,5.40376e+006,317.5,0.8,0.8,0.8
513141,5.40375e+006,308.66,0.8,0.8,0.8
513439,5.40325e+006,291.91,0.8,0.8,0.8
513467,5.40372e+006,294.36,0.8,0.8,0.8
513316,5.40356e+006,298.04,0.8,0.8,0.8
513577,5.40373e+006,294.25,0.8,0.8,0.8
513440,5.40339e+006,289.78,0.8,0.8,0.8
513484,5.40363e+006,295.28,0.8,0.8,0.8
513282,5.40344e+006,302.23,0.8,0.8,0.8
513606,5.40322e+006,290.44,0.8,0.8,0.8
513422,5.40323e+006,299.65,0.8,0.8,0.8
513385,5.40365e+006,301.59,0.8,0.8,0.8
513374,5.40327e+006,310.15,0.8,0.8,0.8
513542,5.40358e+006,288.61,0.8,0.8,0.8
513198,5.40334e+006,300.18,0.8,0.8,0.8
513505,5.40337e+006,307.52,0.8,0.8,0.8
513567,5.40352e+006,288.08,0.8,0.8,0.8
513379,5.40359e+006,298.78,0.8,0.8,0.8
513334,5.40327e+006,312.15,0.8,0.8,0.8
513499,5.40352e+006,306.95,0.8,0.8,0.8
513336,5.40321e+006,306.08,0.8,0.8,0.8
513596,5.4037e+006,294.68,0.8,0.8,0.8
513220,5.40366e+006,298.67,0.8,0.8,0.8
513198,5.40337e+006,318.99,0.8,0.8,0.8
513457,5.40363e+006,295.29,0.8,0.8,0.8
513125,5.40333e+006,318.53,0.8,0.8,0.8
513254,5.4036e+006,295.66,0.8,0.8,0.8
513244,5.40349e+006,294.36,0.8,0.8,0.8
513542,5.40332e+006,303.55,0.8,0.8,0.8
513405,5.40324e+006,299.49,0.8,0.8,0.8
513627,5.40362e+006,286.51,0.8,0.8,0.8
513138,5.40354e+006,294.85,0.8,0.8,0.8
513515,5.40331e+006,316.16,0.8,0.8,0.8
513425,5.40323e+006,299.66,0.8,0.8,0.8
513120,5.40354e+006,294.72,0.8,0.8,0.8
513428,5.40322e+006,295.23,0.8,0.8,0.8
513216,5.40357e+006,307.9,0.8,0.8,0.8
513438,5.40334e+006,297.61,0.8,0.8,0.8
513531,5.40364e+006,295.29,0.8,0.8,0.8
513557,5.4037e+006,294.34,0.8,0.8,0.8
513582,5.40319e+006,290.11,0.8,0.8,0.8
513412,5.40319e+006,289.71,0.8,0.8,0.8
513227,5.40325e+006,311.09,0.8,0.8,0.8
513148,5.40352e+006,298.86,0.8,0.8,0.8
513309,5.40353e+006,310.57,0.8,0.8,0.8
513564,5.40346e+006,289.4,0.8,0.8,0.8
513352,5.40347e+006,301.76,0.8,0.8,0.8
513527,5.40328e+006,289.76,0.8,0.8,0.8
513181,5.40341e+006,321.86,0.8,0.8,0.8
513146,5.40337e+006,295.38,0.8,0.8,0.8
513591,5.40345e+006,287.27,0.8,0.8,0.8
513508,5.40363e+006,302.23,0.8,0.8,0.8
513557,5.4033e+006,295.78,0.8,0.8,0.8
513378,5.40359e+006,304.61,0.8,0.8,0.8
513181,5.4032e+006,313.59,0.8,0.8,0.8
513226,5.40365e+006,298.69,0.8,0.8,0.8
513224,5.40329e+006,312.64,0.8,0.8,0.8
513419,5.40339e+006,346.81,0.8,0.8,0.8
513485,5.40323e+006,289.39,0.8,0.8,0.8
513479,5.40344e+006,290.32,0.8,0.8,0.8
513127,5.40351e+006,294.84,0.8,0.8,0.8
513593,5.40337e+006,287.91,0.8,0.8,0.8
513179,5.40362e+006,320.79,0.8,0.8,0.8
513614,5.40366e+006,304.23,0.8,0.8,0.8
513489,5.40364e+006,299.54,0.8,0.8,0.8
513442,5.40374e+006,294.91,0.8,0.8,0.8
513285,5.40335e+006,290.95,0.8,0.8,0.8
513141,5.40352e+006,294.48,0.8,0.8,0.8
513555,5.40343e+006,287.65,0.8,0.8,0.8
513179,5.40327e+006,292.42,0.8,0.8,0.8
513347,5.40325e+006,290.2,0.8,0.8,0.8
513568,5.40373e+006,294.28,0.8,0.8,0.8
513613,5.40357e+006,295.55,0.8,0.8,0.8
513145,5.40337e+006,295.38,0.8,0.8,0.8
513441,5.40374e+006,294.52,0.8,0.8,0.8
513343,5.4033e+006,306.65,0.8,0.8,0.8
513207,5.40335e+006,291.81,0.8,0.8,0.8
513580,5.40322e+006,305.52,0.8,0.8,0.8
513130,5.40328e+006,313.26,0.8,0.8,0.8
513627,5.40341e+006,287.36,0.8,0.8,0.8
513350,5.40338e+006,291.02,0.8,0.8,0.8
513546,5.40352e+006,292.16,0.8,0.8,0.8
513395,5.40376e+006,295.33,0.8,0.8,0.8
513122,5.40355e+006,303.98,0.8,0.8,0.8
513505,5.40346e+006,295.21,0.8,0.8,0.8
513598,5.40326e+006,292.55,0.8,0.8,0.8
513567,5.40343e+006,297.46,0.8,0.8,0.8
513479,5.40338e+006,289.96,0.8,0.8,0.8
513365,5.4033e+006,290.4,0.8,0.8,0.8
513291,5.40335e+006,286.25,0.8,0.8,0.8
513557,5.40333e+006,288.2,0.8,0.8,0.8
513594,5.4036e+006,296.12,0.8,0.8,0.8
513310,5.40344e+006,303.51,0.8,0.8,0.8
513523,5.40355e+006,307.46,0.8,0.8,0.8
513581,5.4033e+006,317.58,0.8,0.8,0.8
513560,5.40369e+006,295.28,0.8,0.8,0.8
513128,5.40341e+006,316.32,0.8,0.8,0.8
513458,5.40358e+006,301.52,0.8,0.8,0.8
513332,5.4033e+006,310.05,0.8,0.8,0.8
513396,5.40349e+006,304.77,0.8,0.8,0.8
513571,5.4036e+006,288.93,0.8,0.8,0.8
513230,5.40339e+006,291.58,0.8,0.8,0.8
513539,5.40338e+006,294.65,0.8,0.8,0.8
513367,5.40345e+006,304.63,0.8,0.8,0.8
513596,5.4033e+006,318.19,0.8,0.8,0.8
513300,5.40366e+006,307.78,0.8,0.8,0.8
513429,5.40369e+006,294.57,0.8,0.8,0.8
513587,5.40352e+006,293.9,0.8,0.8,0.8
513623,5.40352e+006,291.43,0.8,0.8,0.8
513464,5.40331e+006,289.63,0.8,0.8,0.8
513389,5.40365e+006,294.49,0.8,0.8,0.8
513160,5.40361e+006,305.66,0.8,0.8,0.8
513341,5.40374e+006,329.97,0.8,0.8,0.8
513151,5.40367e+006,325.89,0.8,0.8,0.8
513261,5.4036e+006,301.11,0.8,0.8,0.8
513466,5.40336e+006,290.38,0.8,0.8,0.8
513507,5.40347e+006,289.04,0.8,0.8,0.8
513444,5.40359e+006,301.59,0.8,0.8,0.8
513552,5.4036e+006,292.63,0.8,0.8,0.8
513166,5.40348e+006,293.61,0.8,0.8,0.8
513215,5.40374e+006,304.37,0.8,0.8,0.8
513338,5.40333e+006,290.57,0.8,0.8,0.8
513512,5.40346e+006,301.7,0.8,0.8,0.8
513616,5.40364e+006,304.19,0.8,0.8,0.8
513312,5.40332e+006,290.89,0.8,0.8,0.8
513539,5.40339e+006,287.92,0.8,0.8,0.8
513190,5.40339e+006,300.95,0.8,0.8,0.8
513124,5.40328e+006,315.79,0.8,0.8,0.8
513247,5.40353e+006,295.07,0.8,0.8,0.8
513532,5.40346e+006,288.4,0.8,0.8,0.8
513523,5.40337e+006,293.25,0.8,0.8,0.8
513459,5.40336e+006,289.12,0.8,0.8,0.8
513124,5.40341e+006,317.59,0.8,0.8,0.8
513522,5.40374e+006,295.38,0.8,0.8,0.8
513350,5.40353e+006,304.84,0.8,0.8,0.8
513481,5.40372e+006,294.43,0.8,0.8,0.8
513240,5.40365e+006,298.81,0.8,0.8,0.8
513420,5.40337e+006,290.08,0.8,0.8,0.8
513227,5.40349e+006,294.09,0.8,0.8,0.8
513410,5.40341e+006,313.02,0.8,0.8,0.8
513219,5.40329e+006,312.7,0.8,0.8,0.8
513321,5.40354e+006,301.67,0.8,0.8,0.8
513514,5.40338e+006,305.99,0.8,0.8,0.8
513314,5.40361e+006,326.57,0.8,0.8,0.8
513511,5.40329e+006,289.38,0.8,0.8,0.8
513269,5.4037e+006,305.65,0.8,0.8,0.8
513500,5.40327e+006,289.76,0.8,0.8,0.8
513318,5.40372e+006,301.38,0.8,0.8,0.8
513353,5.40322e+006,310.13,0.8,0.8,0.8
513361,5.40344e+006,312.97,0.8,0.8,0.8
513578,5.4037e+006,294.87,0.8,0.8,0.8
513492,5.40334e+006,286.58,0.8,0.8,0.8
513251,5.40319e+006,290.71,0.8,0.8,0.8
513441,5.40374e+006,294.5,0.8,0.8,0.8
513365,5.40365e+006,325.92,0.8,0.8,0.8
513414,5.40346e+006,301.59,0.8,0.8,0.8
513433,5.40355e+006,295.35,0.8,0.8,0.8
513525,5.40329e+006,295.39,0.8,0.8,0.8
513196,5.40329e+006,312.61,0.8,0.8,0.8
513184,5.40326e+006,296.23,0.8,0.8,0.8
513564,5.4033e+006,308.97,0.8,0.8,0.8
513452,5.40339e+006,301.35,0.8,0.8,0.8
513546,5.40375e+006,294.45,0.8,0.8,0.8
513225,5.40351e+006,295.37,0.8,0.8,0.8
513589,5.4035e+006,291.89,0.8,0.8,0.8
513256,5.40338e+006,291.2,0.8,0.8,0.8
513372,5.40327e+006,310.18,0.8,0.8,0.8
513579,5.40348e+006,301.33,0.8,0.8,0.8
513398,5.40338e+006,316.17,0.8,0.8,0.8
513549,5.40356e+006,288.49,0.8,0.8,0.8
513401,5.40324e+006,298.68,0.8,0.8,0.8
513560,5.40337e+006,300.2,0.8,0.8,0.8
513540,5.40357e+006,307.48,0.8,0.8,0.8
513564,5.40361e+006,287.78,0.8,0.8,0.8
513135,5.40374e+006,320.31,0.8,0.8,0.8
513197,5.40337e+006,318.42,0.8,0.8,0.8
513270,5.40359e+006,295.89,0.8,0.8,0.8
513353,5.40361e+006,294.36,0.8,0.8,0.8
513121,5.4034e+006,315.43,0.8,0.8,0.8
513134,5.4036e+006,317.96,0.8,0.8,0.8
513538,5.40359e+006,294.56,0.8,0.8,0.8
513479,5.40337e+006,290.23,0.8,0.8,0.8
513584,5.40336e+006,288.11,0.8,0.8,0.8
513506,5.40375e+006,294.4,0.8,0.8,0.8
513477,5.40353e+006,301.43,0.8,0.8,0.8
513388,5.40325e+006,310.11,0.8,0.8,0.8
513563,5.40333e+006,294.88,0.8,0.8,0.8
513309,5.40329e+006,309.95,0.8,0.8,0.8
513613,5.40362e+006,303.16,0.8,0.8,0.8
513327,5.40336e+006,290.91,0.8,0.8,0.8
513601,5.40341e+006,287.69,0.8,0.8,0.8
513215,5.40366e+006,298.7,0.8,0.8,0.8
513566,5.40329e+006,302.79,0.8,0.8,0.8
513315,5.40345e+006,313.02,0.8,0.8,0.8
513550,5.40327e+006,292.63,0.8,0.8,0.8
513140,5.40348e+006,293.47,0.8,0.8,0.8
513259,5.40364e+006,296.03,0.8,0.8,0.8
513466,5.40364e+006,294.39,0.8,0.8,0.8
513237,5.40356e+006,303.47,0.8,0.8,0.8
513606,5.40335e+006,298.23,0.8,0.8,0.8
513385,5.4032e+006,299.49,0.8,0.8,0.8
513251,5.40333e+006,291.62,0.8,0.8,0.8
513381,5.40352e+006,301.56,0.8,0.8,0.8
513224,5.40363e+006,297.09,0.8,0.8,0.8
513446,5.40324e+006,290.13,0.8,0.8,0.8
513497,5.40335e+006,286.64,0.8,0.8,0.8
513563,5.40339e+006,306.48,0.8,0.8,0.8
513430,5.40344e+006,304.52,0.8,0.8,0.8
513207,5.40339e+006,321.85,0.8,0.8,0.8
513363,5.40324e+006,313.02,0.8,0.8,0.8
513490,5.40329e+006,289.73,0.8,0.8,0.8
513296,5.40362e+006,307.95,0.8,0.8,0.8
513173,5.40351e+006,294.43,0.8,0.8,0.8
513607,5.40354e+006,299.86,0.8,0.8,0.8
513144,5.40335e+006,318.92,0.8,0.8,0.8
513605,5.40336e+006,306.5,0.8,0.8,0.8
513394,5.40338e+006,315.93,0.8,0.8,0.8
513150,5.40374e+006,305.1,0.8,0.8,0.8
513552,5.4036e+006,292.64,0.8,0.8,0.8
513617,5.40376e+006,294.33,0.8,0.8,0.8
513608,5.40357e+006,312.43,0.8,0.8,0.8
513132,5.40322e+006,293.84,0.8,0.8,0.8
513404,5.40365e+006,301.71,0.8,0.8,0.8
513368,5.40375e+006,295.07,0.8,0.8,0.8
513515,5.40373e+006,295.4,0.8,0.8,0.8
513470,5.40371e+006,294.43,0.8,0.8,0.8
513356,5.40343e+006,314.06,0.8,0.8,0.8
513512,5.40362e+006,294.32,0.8,0.8,0.8
513309,5.40353e+006,308.07,0.8,0.8,0.8
513522,5.40352e+006,288.9,0.8,0.8,0.8
513141,5.40334e+006,293.22,0.8,0.8,0.8
513377,5.40362e+006,304.7,0.8,0.8,0.8
513247,5.40331e+006,291.96,0.8,0.8,0.8
513482,5.40364e+006,299.54,0.8,0.8,0.8
513311,5.40321e+006,290.45,0.8,0.8,0.8
513391,5.4037e+006,325.01,0.8,0.8,0.8
513160,5.40364e+006,298.82,0.8,0.8,0.8
513464,5.40359e+006,301.48,0.8,0.8,0.8
513516,5.40345e+006,297.2,0.8,0.8,0.8
513453,5.40334e+006,287.01,0.8,0.8,0.8
513374,5.40372e+006,326.49,0.8,0.8,0.8
513505,5.40337e+006,305.33,0.8,0.8,0.8
513244,5.40337e+006,291.34,0.8,0.8,0.8
513629,5.4036e+006,286.75,0.8,0.8,0.8
513598,5.40355e+006,295.16,0.8,0.8,0.8
513472,5.40372e+006,294.44,0.8,0.8,0.8
513317,5.40332e+006,290.84,0.8,0.8,0.8
513295,5.40352e+006,307.65,0.8,0.8,0.8
513128,5.40358e+006,296.42,0.8,0.8,0.8
513435,5.40352e+006,304.52,0.8,0.8,0.8
513515,5.40358e+006,294.43,0.8,0.8,0.8
513464,5.40335e+006,288.81,0.8,0.8,0.8
513270,5.40343e+006,310.43,0.8,0.8,0.8
513494,5.40368e+006,294.37,0.8,0.8,0.8
513251,5.40362e+006,318.61,0.8,0.8,0.8
513345,5.40343e+006,313.23,0.8,0.8,0.8
513599,5.40322e+006,290.22,0.8,0.8,0.8
513121,5.40353e+006,301.5,0.8,0.8,0.8
513591,5.40351e+006,302.98,0.8,0.8,0.8
513303,5.40361e+006,326.26,0.8,0.8,0.8
513461,5.40354e+006,299.02,0.8,0.8,0.8
513612,5.40355e+006,306.71,0.8,0.8,0.8
513517,5.40344e+006,288.66,0.8,0.8,0.8
513367,5.40324e+006,312.95,0.8,0.8,0.8
513486,5.40319e+006,289.26,0.8,0.8,0.8
513536,5.40328e+006,289.11,0.8,0.8,0.8
513561,5.40323e+006,315.76,0.8,0.8,0.8
513557,5.40332e+006,304.85,0.8,0.8,0.8
513172,5.4032e+006,331.13,0.8,0.8,0.8
513378,5.40335e+006,316.17,0.8,0.8,0.8
513299,5.40374e+006,301.78,0.8,0.8,0.8
513409,5.40364e+006,301.63,0.8,0.8,0.8
513284,5.40334e+006,302.74,0.8,0.8,0.8
513441,5.40332e+006,289.7,0.8,0.8,0.8
513599,5.40342e+006,299.89,0.8,0.8,0.8
513518,5.40322e+006,291.55,0.8,0.8,0.8
513479,5.40324e+006,303.18,0.8,0.8,0.8
513423,5.40332e+006,289.5,0.8,0.8,0.8
513123,5.40339e+006,293.12,0.8,0.8,0.8
513449,5.40355e+006,294.35,0.8,0.8,0.8
513611,5.40354e+006,302.42,0.8,0.8,0.8
513478,5.40371e+006,295.38,0.8,0.8,0.8
513274,5.40333e+006,309.96,0.8,0.8,0.8
513327,5.40334e+006,290.78,0.8,0.8,0.8
513537,5.40339e+006,297.91,0.8,0.8,0.8
513616,5.40332e+006,288.19,0.8,0.8,0.8
513204,5.40355e+006,304.89,0.8,0.8,0.8
513578,5.40327e+006,317.57,0.8,0.8,0.8
513587,5.40325e+006,289.72,0.8,0.8,0.8
513342,5.40342e+006,303.77,0.8,0.8,0.8
513338,5.40358e+006,301.71,0.8,0.8,0.8
513627,5.40354e+006,287.48,0.8,0.8,0.8
513274,5.40372e+006,324.29,0.8,0.8,0.8
513310,5.4036e+006,326.14,0.8,0.8,0.8
513269,5.40365e+006,327.03,0.8,0.8,0.8
513490,5.40329e+006,289.81,0.8,0.8,0.8
513466,5.4035e+006,301.41,0.8,0.8,0.8
513159,5.40354e+006,295.26,0.8,0.8,0.8
513299,5.40353e+006,307.94,0.8,0.8,0.8
513542,5.40354e+006,288.65,0.8,0.8,0.8
513555,5.40354e+006,300.51,0.8,0.8,0.8
513554,5.40329e+006,317.95,0.8,0.8,0.8
513433,5.40354e+006,294.36,0.8,0.8,0.8
513339,5.40322e+006,310.2,0.8,0.8,0.8
513598,5.40358e+006,313.61,0.8,0.8,0.8
513133,5.40358e+006,296.53,0.8,0.8,0.8
513571,5.40331e+006,288.41,0.8,0.8,0.8
513623,5.40353e+006,299.18,0.8,0.8,0.8
513264,5.40343e+006,310.56,0.8,0.8,0.8
513456,5.40327e+006,295.84,0.8,0.8,0.8
513511,5.40363e+006,294.87,0.8,0.8,0.8
513362,5.40343e+006,314.87,0.8,0.8,0.8
513486,5.40329e+006,289.74,0.8,0.8,0.8
513124,5.40375e+006,309.58,0.8,0.8,0.8
513346,5.40334e+006,290.72,0.8,0.8,0.8
513154,5.40366e+006,324.97,0.8,0.8,0.8
513528,5.4034e+006,293.23,0.8,0.8,0.8
513148,5.40375e+006,321.97,0.8,0.8,0.8
513338,5.40359e+006,295.44,0.8,0.8,0.8
513489,5.40373e+006,295.32,0.8,0.8,0.8
513362,5.40346e+006,301.65,0.8,0.8,0.8
513588,5.40352e+006,299.95,0.8,0.8,0.8
513159,5.40354e+006,294.92,0.8,0.8,0.8
513226,5.40375e+006,308.4,0.8,0.8,0.8
513464,5.4033e+006,289.89,0.8,0.8,0.8
513466,5.40358e+006,304.49,0.8,0.8,0.8
513321,5.40349e+006,301.9,0.8,0.8,0.8
513193,5.40372e+006,302.28,0.8,0.8,0.8
513436,5.40333e+006,291.2,0.8,0.8,0.8
513379,5.40357e+006,294.93,0.8,0.8,0.8
513481,5.40352e+006,304.55,0.8,0.8,0.8
513510,5.40339e+006,301.95,0.8,0.8,0.8
513367,5.40338e+006,302.94,0.8,0.8,0.8
513420,5.40353e+006,304.86,0.8,0.8,0.8
513570,5.4036e+006,287.95,0.8,0.8,0.8
513497,5.40363e+006,302.18,0.8,0.8,0.8
513159,5.40336e+006,314.91,0.8,0.8,0.8
513295,5.40356e+006,295.55,0.8,0.8,0.8
513319,5.40357e+006,295.13,0.8,0.8,0.8
513505,5.40366e+006,294.82,0.8,0.8,0.8
513137,5.40359e+006,319.42,0.8,0.8,0.8
513543,5.40321e+006,306.21,0.8,0.8,0.8
513279,5.4033e+006,312.84,0.8,0.8,0.8
513340,5.40365e+006,329.66,0.8,0.8,0.8
513411,5.40343e+006,301.76,0.8,0.8,0.8
513231,5.40352e+006,296.26,0.8,0.8,0.8
513359,5.40376e+006,303.88,0.8,0.8,0.8
513395,5.4033e+006,299.99,0.8,0.8,0.8
513145,5.40364e+006,307.88,0.8,0.8,0.8
513200,5.40325e+006,291.92,0.8,0.8,0.8
513533,5.4035e+006,288.68,0.8,0.8,0.8
513536,5.40365e+006,295.32,0.8,0.8,0.8
513193,5.4035e+006,302.25,0.8,0.8,0.8
513283,5.40336e+006,290.95,0.8,0.8,0.8
513407,5.40344e+006,304.57,0.8,0.8,0.8
513221,5.40325e+006,296.87,0.8,0.8,0.8
513553,5.40336e+006,304.53,0.8,0.8,0.8
513394,5.40375e+006,298.25,0.8,0.8,0.8
513508,5.40371e+006,295.37,0.8,0.8,0.8
513440,5.40343e+006,307.57,0.8,0.8,0.8
513340,5.40363e+006,329.87,0.8,0.8,0.8
513483,5.40352e+006,304.61,0.8,0.8,0.8
513185,5.40322e+006,331.65,0.8,0.8,0.8
513270,5.40349e+006,294.48,0.8,0.8,0.8
513232,5.40333e+006,313.68,0.8,0.8,0.8
513296,5.40376e+006,301.33,0.8,0.8,0.8
513126,5.40341e+006,317.41,0.8,0.8,0.8
513306,5.40346e+006,313.82,0.8,0.8,0.8
513543,5.40332e+006,307.69,0.8,0.8,0.8
513326,5.40322e+006,295.98,0.8,0.8,0.8
513462,5.4033e+006,289.78,0.8,0.8,0.8
513252,5.40351e+006,294.2,0.8,0.8,0.8
513365,5.40344e+006,304.64,0.8,0.8,0.8
513514,5.40371e+006,294.47,0.8,0.8,0.8
513212,5.40347e+006,293.08,0.8,0.8,0.8
513508,5.40323e+006,314.93,0.8,0.8,0.8
513453,5.40325e+006,297.84,0.8,0.8,0.8
513121,5.40374e+006,320.32,0.8,0.8,0.8
513461,5.40358e+006,294.37,0.8,0.8,0.8
513182,5.40362e+006,321.47,0.8,0.8,0.8
513627,5.40341e+006,287.33,0.8,0.8,0.8
513290,5.40327e+006,314.29,0.8,0.8,0.8
513351,5.40358e+006,304.57,0.8,0.8,0.8
513339,5.40376e+006,333.89,0.8,0.8,0.8
513219,5.40322e+006,314.75,0.8,0.8,0.8
513125,5.40321e+006,294.2,0.8,0.8,0.8
513310,5.40322e+006,290.48,0.8,0.8,0.8
513566,5.40363e+006,294.38,0.8,0.8,0.8
513555,5.40375e+006,294.45,0.8,0.8,0.8
513365,5.40335e+006,294.99,0.8,0.8,0.8
513626,5.40332e+006,288.2,0.8,0.8,0.8
513619,5.40334e+006,288.03,0.8,0.8,0.8
513134,5.40342e+006,316.2,0.8,0.8,0.8
513570,5.40351e+006,287.7,0.8,0.8,0.8
513238,5.40354e+006,295.15,0.8,0.8,0.8
513567,5.40329e+006,310.54,0.8,0.8,0.8
513481,5.40367e+006,295.32,0.8,0.8,0.8
513601,5.40351e+006,298.6,0.8,0.8,0.8
513381,5.40338e+006,316.18,0.8,0.8,0.8
513445,5.40351e+006,299.06,0.8,0.8,0.8
513324,5.4032e+006,290.43,0.8,0.8,0.8
513432,5.40341e+006,306.72,0.8,0.8,0.8
513233,5.40329e+006,314.23,0.8,0.8,0.8
513477,5.40352e+006,304.38,0.8,0.8,0.8
513376,5.40321e+006,310.07,0.8,0.8,0.8
513124,5.4035e+006,294.02,0.8,0.8,0.8
513443,5.40321e+006,294.33,0.8,0.8,0.8
513524,5.4036e+006,294.9,0.8,0.8,0.8
513474,5.40323e+006,303.11,0.8,0.8,0.8
513425,5.4034e+006,313.2,0.8,0.8,0.8
513487,5.40362e+006,294.88,0.8,0.8,0.8
513576,5.40343e+006,301.04,0.8,0.8,0.8
513344,5.40353e+006,301.71,0.8,0.8,0.8
513537,5.40366e+006,300.22,0.8,0.8,0.8
513496,5.40345e+006,289.04,0.8,0.8,0.8
513288,5.40376e+006,309.88,0.8,0.8,0.8
513362,5.4035e+006,301.71,0.8,0.8,0.8
513379,5.40372e+006,329.94,0.8,0.8,0.8
513326,5.4032e+006,290.4,0.8,0.8,0.8
513472,5.40321e+006,289.29,0.8,0.8,0.8
513284,5.40375e+006,311.46,0.8,0.8,0.8
513323,5.40357e+006,301.75,0.8,0.8,0.8
513526,5.40341e+006,292.64,0.8,0.8,0.8
513621,5.40348e+006,304.67,0.8,0.8,0.8
513614,5.40361e+006,297.3,0.8,0.8,0.8
513620,5.40361e+006,304.91,0.8,0.8,0.8
513430,5.40361e+006,301.33,0.8,0.8,0.8
513561,5.40329e+006,318.72,0.8,0.8,0.8
513362,5.40326e+006,290.03,0.8,0.8,0.8
513172,5.40325e+006,306.18,0.8,0.8,0.8
513324,5.40323e+006,290.41,0.8,0.8,0.8
513611,5.40328e+006,299.14,0.8,0.8,0.8
513614,5.40356e+006,304.41,0.8,0.8,0.8
513316,5.4032e+006,296.27,0.8,0.8,0.8
513593,5.40355e+006,286.92,0.8,0.8,0.8
513468,5.40338e+006,290.14,0.8,0.8,0.8
513221,5.40332e+006,315.27,0.8,0.8,0.8
513299,5.40373e+006,301.06,0.8,0.8,0.8
513231,5.40374e+006,313.04,0.8,0.8,0.8
513467,5.40359e+006,301.57,0.8,0.8,0.8
513206,5.40323e+006,318.18,0.8,0.8,0.8
513464,5.40372e+006,295.37,0.8,0.8,0.8
513439,5.40342e+006,306.36,0.8,0.8,0.8
513326,5.40353e+006,304.84,0.8,0.8,0.8
513545,5.40369e+006,294.36,0.8,0.8,0.8
513221,5.40358e+006,295.37,0.8,0.8,0.8
513515,5.40366e+006,294.24,0.8,0.8,0.8
513357,5.40374e+006,329.94,0.8,0.8,0.8
513302,5.40339e+006,291.16,0.8,0.8,0.8
513331,5.40358e+006,295.91,0.8,0.8,0.8
513237,5.40327e+006,314.17,0.8,0.8,0.8
513479,5.4033e+006,290.14,0.8,0.8,0.8
513405,5.4035e+006,298.38,0.8,0.8,0.8
513610,5.40365e+006,301.39,0.8,0.8,0.8
513413,5.40337e+006,307.13,0.8,0.8,0.8
513603,5.40352e+006,311.47,0.8,0.8,0.8
513382,5.40375e+006,295.31,0.8,0.8,0.8
513576,5.4035e+006,298.17,0.8,0.8,0.8
513281,5.40339e+006,291.19,0.8,0.8,0.8
513137,5.40336e+006,321.59,0.8,0.8,0.8
513614,5.4036e+006,291.34,0.8,0.8,0.8
513571,5.4033e+006,316.77,0.8,0.8,0.8
513625,5.40343e+006,287.41,0.8,0.8,0.8
513121,5.40339e+006,300.86,0.8,0.8,0.8
513279,5.40343e+006,307.34,0.8,0.8,0.8
513575,5.40354e+006,287.56,0.8,0.8,0.8
513282,5.4035e+006,307.68,0.8,0.8,0.8
513190,5.40356e+006,294.69,0.8,0.8,0.8
513549,5.4036e+006,292.78,0.8,0.8,0.8
513271,5.40335e+006,291.2,0.8,0.8,0.8
513232,5.40356e+006,304.1,0.8,0.8,0.8
