x,y,z,r,g,b
513293.312500,5403543.000000,308.220001,0.8,0.8,0.8
513591.500000,5403733.500000,294.339996,0.8,0.8,0.8
513533.468750,5403356.500000,291.500000,0.8,0.8,0.8
513620.531250,5403748.500000,299.579987,0.8,0.8,0.8
513529.062500,5403210.000000,298.600006,0.8,0.8,0.8
513629.687500,5403595.500000,286.679993,0.8,0.8,0.8
513562.875000,5403390.000000,287.720001,0.8,0.8,0.8
513256.375000,5403545.000000,296.000000,0.8,0.8,0.8
513600.093750,5403658.000000,287.200012,0.8,0.8,0.8
513154.781250,5403528.000000,291.200012,0.8,0.8,0.8
513577.781250,5403589.500000,287.739990,0.8,0.8,0.8
513407.031250,5403530.500000,301.540009,0.8,0.8,0.8
513490.593750,5403586.500000,301.709991,0.8,0.8,0.8
513617.062500,5403281.000000,288.510010,0.8,0.8,0.8
513338.343750,5403306.500000,303.820007,0.8,0.8,0.8
513504.437500,5403444.500000,289.070007,0.8,0.8,0.8
513144.156250,5403451.000000,293.100006,0.8,0.8,0.8
513422.875000,5403490.500000,294.519989,0.8,0.8,0.8
513420.625000,5403520.000000,297.910004,0.8,0.8,0.8
513379.000000,5403607.000000,294.320007,0.8,0.8,0.8
513570.687500,5403269.500000,314.630005,0.8,0.8,0.8
513420.875000,5403372.500000,307.510010,0.8,0.8,0.8
513530.312500,5403438.500000,288.109985,0.8,0.8,0.8
513583.000000,5403253.000000,290.309998,0.8,0.8,0.8
513490.781250,5403583.500000,294.450012,0.8,0.8,0.8
513338.125000,5403440.000000,314.529999,0.8,0.8,0.8
513299.906250,5403593.500000,295.200012,0.8,0.8,0.8
513531.000000,5403544.000000,288.630005,0.8,0.8,0.8
513325.875000,5403190.500000,306.059998,0.8,0.8,0.8
513449.250000,5403343.500000,289.000000,0.8,0.8,0.8
513129.750000,5403310.500000,290.049988,0.8,0.8,0.8
513504.625000,5403670.500000,299.510010,0.8,0.8,0.8
513430.687500,5403753.500000,307.579987,0.8,0.8,0.8
513599.937500,5403614.000000,287.559998,0.8,0.8,0.8
513542.343750,5403231.000000,315.730011,0.8,0.8,0.8
513591.906250,5403522.500000,287.410004,0.8,0.8,0.8
513522.687500,5403410.000000,292.019989,0.8,0.8,0.8
513575.812500,5403631.500000,287.609985,0.8,0.8,0.8
513581.750000,5403691.500000,299.510010,0.8,0.8,0.8
513147.468750,5403593.500000,317.779999,0.8,0.8,0.8
513401.375000,5403366.500000,295.209991,0.8,0.8,0.8
513519.312500,5403319.500000,288.390015,0.8,0.8,0.8
513292.625000,5403350.500000,286.290009,0.8,0.8,0.8
513500.125000,5403193.000000,289.459991,0.8,0.8,0.8
513132.031250,5403759.500000,324.250000,0.8,0.8,0.8
513301.093750,5403412.500000,307.700012,0.8,0.8,0.8
513121.375000,5403301.000000,294.239990,0.8,0.8,0.8
513126.531250,5403758.000000,320.750000,0.8,0.8,0.8
513523.937500,5403386.000000,295.529999,0.8,0.8,0.8
513137.718750,5403516.500000,290.109985,0.8,0.8,0.8
513371.218750,5403490.000000,304.700012,0.8,0.8,0.8
513132.625000,5403584.000000,296.529999,0.8,0.8,0.8
513204.906250,5403257.000000,291.790009,0.8,0.8,0.8
513418.156250,5403350.500000,291.089996,0.8,0.8,0.8
513244.468750,5403344.500000,298.619995,0.8,0.8,0.8
513619.031250,5403741.500000,295.260010,0.8,0.8,0.8
513249.312500,5403712.500000,302.320007,0.8,0.8,0.8
513496.843750,5403215.000000,289.779999,0.8,0.8,0.8
513563.781250,5403605.000000,287.779999,0.8,0.8,0.8
513374.531250,5403397.000000,299.869995,0.8,0.8,0.8
513286.718750,5403573.500000,295.540009,0.8,0.8,0.8
513292.531250,5403246.000000,314.480011,0.8,0.8,0.8
513445.125000,5403214.500000,289.429993,0.8,0.8,0.8
513565.250000,5403396.000000,304.709991,0.8,0.8,0.8
513593.375000,5403199.500000,290.679993,0.8,0.8,0.8
513382.375000,5403596.000000,304.519989,0.8,0.8,0.8
513401.718750,5403248.000000,294.959991,0.8,0.8,0.8
513460.843750,5403235.500000,302.549988,0.8,0.8,0.8
513308.687500,5403743.500000,301.899994,0.8,0.8,0.8
513368.343750,5403373.500000,315.559998,0.8,0.8,0.8
513494.437500,5403484.500000,289.010010,0.8,0.8,0.8
513620.000000,5403533.500000,307.049988,0.8,0.8,0.8
513207.125000,5403643.000000,296.559998,0.8,0.8,0.8
513456.687500,5403606.500000,294.459991,0.8,0.8,0.8
513591.562500,5403500.500000,291.700012,0.8,0.8,0.8
513181.843750,5403402.500000,301.869995,0.8,0.8,0.8
513518.062500,5403201.500000,290.019989,0.8,0.8,0.8
513553.000000,5403233.000000,315.779999,0.8,0.8,0.8
513385.625000,5403238.000000,310.059998,0.8,0.8,0.8
513629.000000,5403481.000000,286.829987,0.8,0.8,0.8
513169.218750,5403531.500000,294.390015,0.8,0.8,0.8
513124.250000,5403455.000000,293.390015,0.8,0.8,0.8
513500.718750,5403530.000000,301.510010,0.8,0.8,0.8
513262.031250,5403576.500000,295.390015,0.8,0.8,0.8
513527.281250,5403230.000000,288.829987,0.8,0.8,0.8
513189.406250,5403756.500000,303.769989,0.8,0.8,0.8
513477.281250,5403547.500000,304.579987,0.8,0.8,0.8
513328.125000,5403738.500000,301.329987,0.8,0.8,0.8
513559.843750,5403543.500000,298.160004,0.8,0.8,0.8
513465.656250,5403236.000000,298.040009,0.8,0.8,0.8
513177.968750,5403225.000000,326.390015,0.8,0.8,0.8
513175.468750,5403532.000000,294.559998,0.8,0.8,0.8
513247.531250,5403755.500000,304.119995,0.8,0.8,0.8
513327.906250,5403545.000000,304.579987,0.8,0.8,0.8
513569.968750,5403756.500000,294.690002,0.8,0.8,0.8
513189.750000,5403700.500000,302.000000,0.8,0.8,0.8
513287.656250,5403475.500000,315.570007,0.8,0.8,0.8
513483.500000,5403366.500000,290.739990,0.8,0.8,0.8
513153.000000,5403542.000000,293.450012,0.8,0.8,0.8
513357.000000,5403325.000000,290.510010,0.8,0.8,0.8
513529.968750,5403393.000000,303.730011,0.8,0.8,0.8
513322.875000,5403579.500000,295.079987,0.8,0.8,0.8
513569.843750,5403339.500000,288.109985,0.8,0.8,0.8
513211.968750,5403508.000000,294.290009,0.8,0.8,0.8
513490.437500,5403264.000000,289.399994,0.8,0.8,0.8
513463.218750,5403594.000000,298.239990,0.8,0.8,0.8
513583.406250,5403481.000000,287.119995,0.8,0.8,0.8
513221.875000,5403719.000000,311.940002,0.8,0.8,0.8
513551.156250,5403350.000000,287.980011,0.8,0.8,0.8
513176.781250,5403727.500000,318.440002,0.8,0.8,0.8
513513.906250,5403350.500000,287.529999,0.8,0.8,0.8
513537.437500,5403448.000000,287.970001,0.8,0.8,0.8
513624.656250,5403283.500000,288.859985,0.8,0.8,0.8
513493.718750,5403635.000000,294.950012,0.8,0.8,0.8
513490.812500,5403637.000000,298.019989,0.8,0.8,0.8
513609.468750,5403542.000000,302.609985,0.8,0.8,0.8
513213.937500,5403456.500000,304.730011,0.8,0.8,0.8
513493.843750,5403305.000000,290.070007,0.8,0.8,0.8
513274.343750,5403321.000000,310.410004,0.8,0.8,0.8
513212.906250,5403373.500000,318.579987,0.8,0.8,0.8
513523.687500,5403444.500000,288.519989,0.8,0.8,0.8
513208.375000,5403558.500000,295.730011,0.8,0.8,0.8
513547.625000,5403266.000000,289.119995,0.8,0.8,0.8
513422.281250,5403755.500000,325.040009,0.8,0.8,0.8
513360.343750,5403489.000000,301.570007,0.8,0.8,0.8
513251.437500,5403720.500000,302.739990,0.8,0.8,0.8
513534.968750,5403318.000000,291.079987,0.8,0.8,0.8
513185.625000,5403337.000000,321.019989,0.8,0.8,0.8
513172.781250,5403343.000000,321.459991,0.8,0.8,0.8
513456.187500,5403428.500000,289.500000,0.8,0.8,0.8
513264.437500,5403254.500000,321.839996,0.8,0.8,0.8
513294.062500,5403515.500000,307.670013,0.8,0.8,0.8
513470.062500,5403192.500000,289.200012,0.8,0.8,0.8
513347.812500,5403514.500000,294.950012,0.8,0.8,0.8
513344.468750,5403651.500000,330.010010,0.8,0.8,0.8
513306.218750,5403568.000000,295.279999,0.8,0.8,0.8
513571.031250,5403257.500000,289.179993,0.8,0.8,0.8
513244.937500,5403225.500000,298.709991,0.8,0.8,0.8
513512.531250,5403625.000000,301.750000,0.8,0.8,0.8
513261.968750,5403282.000000,321.649994,0.8,0.8,0.8
513156.312500,5403399.000000,292.880005,0.8,0.8,0.8
513133.593750,5403300.500000,294.019989,0.8,0.8,0.8
513272.468750,5403519.000000,297.769989,0.8,0.8,0.8
513571.968750,5403222.500000,307.000000,0.8,0.8,0.8
513586.687500,5403370.500000,287.970001,0.8,0.8,0.8
513194.656250,5403457.500000,293.059998,0.8,0.8,0.8
513522.187500,5403403.000000,288.369995,0.8,0.8,0.8
513606.250000,5403374.000000,301.559998,0.8,0.8,0.8
513282.531250,5403291.500000,312.720001,0.8,0.8,0.8
513141.875000,5403240.000000,293.500000,0.8,0.8,0.8
513588.500000,5403729.500000,294.299988,0.8,0.8,0.8
513413.437500,5403199.500000,289.769989,0.8,0.8,0.8
513529.343750,5403576.000000,308.070007,0.8,0.8,0.8
513591.343750,5403297.000000,288.670013,0.8,0.8,0.8
513512.375000,5403636.500000,294.299988,0.8,0.8,0.8
513520.781250,5403599.500000,294.929993,0.8,0.8,0.8
513376.593750,5403291.500000,290.239990,0.8,0.8,0.8
513394.500000,5403509.000000,301.510010,0.8,0.8,0.8
513136.437500,5403227.000000,293.709991,0.8,0.8,0.8
513506.531250,5403308.500000,287.399994,0.8,0.8,0.8
513260.812500,5403589.500000,300.640015,0.8,0.8,0.8
513465.468750,5403251.500000,293.649994,0.8,0.8,0.8
513201.000000,5403474.500000,294.230011,0.8,0.8,0.8
513507.718750,5403239.500000,319.170013,0.8,0.8,0.8
513154.687500,5403364.000000,294.839996,0.8,0.8,0.8
513293.156250,5403536.000000,308.040009,0.8,0.8,0.8
513307.375000,5403593.500000,299.769989,0.8,0.8,0.8
513575.812500,5403627.000000,287.500000,0.8,0.8,0.8
513411.125000,5403267.000000,293.410004,0.8,0.8,0.8
513172.750000,5403462.500000,293.190002,0.8,0.8,0.8
513206.718750,5403719.000000,302.459991,0.8,0.8,0.8
513569.875000,5403302.500000,310.750000,0.8,0.8,0.8
513283.250000,5403401.500000,291.230011,0.8,0.8,0.8
513514.375000,5403303.000000,312.730011,0.8,0.8,0.8
513575.718750,5403703.000000,294.410004,0.8,0.8,0.8
513606.093750,5403728.000000,299.529999,0.8,0.8,0.8
513252.468750,5403339.500000,307.230011,0.8,0.8,0.8
513221.000000,5403323.500000,313.760010,0.8,0.8,0.8
513338.437500,5403500.500000,298.290009,0.8,0.8,0.8
513610.750000,5403571.500000,310.579987,0.8,0.8,0.8
513235.812500,5403728.000000,302.730011,0.8,0.8,0.8
513516.062500,5403374.500000,288.000000,0.8,0.8,0.8
513325.000000,5403608.000000,330.109985,0.8,0.8,0.8
513375.968750,5403402.000000,302.820007,0.8,0.8,0.8
513626.156250,5403700.000000,298.399994,0.8,0.8,0.8
513538.781250,5403680.500000,294.299988,0.8,0.8,0.8
513292.562500,5403759.500000,310.100006,0.8,0.8,0.8
513521.625000,5403253.000000,289.049988,0.8,0.8,0.8
513176.218750,5403394.500000,297.029999,0.8,0.8,0.8
513263.531250,5403447.000000,310.179993,0.8,0.8,0.8
513519.281250,5403242.500000,289.109985,0.8,0.8,0.8
513276.500000,5403389.000000,291.339996,0.8,0.8,0.8
513269.218750,5403727.500000,324.320007,0.8,0.8,0.8
513458.062500,5403271.500000,293.010010,0.8,0.8,0.8
513126.156250,5403396.000000,293.649994,0.8,0.8,0.8
513488.875000,5403344.500000,290.790009,0.8,0.8,0.8
513545.093750,5403601.500000,294.850006,0.8,0.8,0.8
513555.718750,5403426.000000,287.640015,0.8,0.8,0.8
513505.500000,5403548.000000,294.429993,0.8,0.8,0.8
513620.187500,5403357.000000,287.839996,0.8,0.8,0.8
513576.875000,5403485.000000,287.450012,0.8,0.8,0.8
513443.250000,5403312.500000,291.549988,0.8,0.8,0.8
513436.468750,5403464.000000,301.480011,0.8,0.8,0.8
513480.656250,5403506.000000,294.290009,0.8,0.8,0.8
513312.781250,5403241.000000,314.200012,0.8,0.8,0.8
513573.875000,5403410.500000,287.690002,0.8,0.8,0.8
513626.562500,5403562.000000,289.470001,0.8,0.8,0.8
513513.281250,5403475.000000,288.890015,0.8,0.8,0.8
513615.718750,5403592.000000,287.720001,0.8,0.8,0.8
513322.687500,5403281.500000,307.679993,0.8,0.8,0.8
513459.156250,5403584.000000,297.899994,0.8,0.8,0.8
513137.000000,5403377.000000,318.890015,0.8,0.8,0.8
513469.156250,5403284.000000,289.959991,0.8,0.8,0.8
513476.625000,5403437.500000,290.790009,0.8,0.8,0.8
513525.312500,5403231.000000,295.089996,0.8,0.8,0.8
513525.906250,5403385.000000,305.989990,0.8,0.8,0.8
513190.125000,5403491.500000,300.170013,0.8,0.8,0.8
513564.250000,5403305.000000,288.359985,0.8,0.8,0.8
513160.468750,5403411.500000,301.839996,0.8,0.8,0.8
513204.062500,5403532.500000,294.619995,0.8,0.8,0.8
513557.562500,5403194.000000,309.089996,0.8,0.8,0.8
513620.187500,5403372.000000,287.559998,0.8,0.8,0.8
513316.375000,5403257.000000,313.899994,0.8,0.8,0.8
513408.593750,5403598.500000,304.579987,0.8,0.8,0.8
513144.437500,5403521.000000,294.559998,0.8,0.8,0.8
513163.062500,5403509.000000,294.040009,0.8,0.8,0.8
513521.718750,5403516.000000,288.910004,0.8,0.8,0.8
513416.968750,5403388.000000,307.190002,0.8,0.8,0.8
513371.593750,5403293.000000,290.470001,0.8,0.8,0.8
513143.187500,5403758.000000,310.149994,0.8,0.8,0.8
513466.187500,5403727.000000,301.940002,0.8,0.8,0.8
513222.906250,5403251.000000,298.839996,0.8,0.8,0.8
513300.593750,5403358.000000,290.950012,0.8,0.8,0.8
513253.468750,5403699.000000,301.649994,0.8,0.8,0.8
513205.687500,5403408.500000,319.279999,0.8,0.8,0.8
513434.437500,5403203.000000,299.160004,0.8,0.8,0.8
513165.281250,5403268.500000,292.670013,0.8,0.8,0.8
513549.156250,5403390.000000,304.160004,0.8,0.8,0.8
513546.218750,5403578.000000,288.269989,0.8,0.8,0.8
513280.218750,5403612.000000,326.649994,0.8,0.8,0.8
513592.968750,5403477.000000,287.059998,0.8,0.8,0.8
513622.718750,5403600.500000,286.720001,0.8,0.8,0.8
513531.718750,5403717.000000,299.589996,0.8,0.8,0.8
513132.250000,5403542.500000,294.829987,0.8,0.8,0.8
513204.156250,5403275.500000,313.690002,0.8,0.8,0.8
513243.593750,5403559.500000,303.010010,0.8,0.8,0.8
513617.468750,5403253.500000,302.320007,0.8,0.8,0.8
513558.093750,5403518.500000,288.269989,0.8,0.8,0.8
513350.156250,5403322.500000,290.570007,0.8,0.8,0.8
513429.593750,5403411.000000,306.309998,0.8,0.8,0.8
513258.156250,5403201.500000,291.570007,0.8,0.8,0.8
513148.656250,5403413.000000,301.940002,0.8,0.8,0.8
513205.218750,5403412.000000,292.309998,0.8,0.8,0.8
513151.375000,5403664.500000,326.429993,0.8,0.8,0.8
513330.625000,5403387.000000,290.970001,0.8,0.8,0.8
513169.750000,5403466.000000,293.250000,0.8,0.8,0.8
513314.625000,5403518.500000,304.779999,0.8,0.8,0.8
513138.250000,5403302.500000,311.630005,0.8,0.8,0.8
513454.531250,5403340.000000,286.929993,0.8,0.8,0.8
513620.031250,5403555.000000,305.820007,0.8,0.8,0.8
513629.156250,5403557.000000,288.809998,0.8,0.8,0.8
513603.375000,5403619.000000,303.350006,0.8,0.8,0.8
513290.437500,5403381.500000,291.190002,0.8,0.8,0.8
513141.156250,5403229.500000,293.660004,0.8,0.8,0.8
513353.906250,5403539.000000,304.880005,0.8,0.8,0.8
513138.906250,5403351.500000,319.690002,0.8,0.8,0.8
513565.093750,5403383.500000,312.220001,0.8,0.8,0.8
513542.312500,5403220.000000,300.829987,0.8,0.8,0.8
513580.437500,5403473.000000,287.250000,0.8,0.8,0.8
513602.625000,5403755.500000,294.320007,0.8,0.8,0.8
513126.750000,5403308.500000,292.959991,0.8,0.8,0.8
513475.312500,5403203.500000,294.700012,0.8,0.8,0.8
513237.781250,5403347.000000,314.649994,0.8,0.8,0.8
513563.375000,5403747.000000,294.779999,0.8,0.8,0.8
513539.968750,5403222.500000,289.269989,0.8,0.8,0.8
513189.656250,5403226.000000,330.600006,0.8,0.8,0.8
513373.343750,5403447.000000,304.429993,0.8,0.8,0.8
513434.875000,5403220.500000,289.679993,0.8,0.8,0.8
513420.625000,5403418.500000,304.700012,0.8,0.8,0.8
513499.062500,5403759.000000,294.429993,0.8,0.8,0.8
513179.343750,5403627.000000,308.459991,0.8,0.8,0.8
513579.937500,5403518.000000,287.529999,0.8,0.8,0.8
513548.062500,5403604.500000,297.589996,0.8,0.8,0.8
513520.937500,5403298.500000,290.269989,0.8,0.8,0.8
513390.968750,5403506.000000,301.579987,0.8,0.8,0.8
513592.031250,5403656.000000,287.149994,0.8,0.8,0.8
513512.406250,5403723.500000,295.420013,0.8,0.8,0.8
513126.250000,5403626.000000,321.450012,0.8,0.8,0.8
513467.656250,5403740.000000,294.470001,0.8,0.8,0.8
513560.187500,5403296.000000,288.529999,0.8,0.8,0.8
513545.500000,5403299.000000,314.799988,0.8,0.8,0.8
513319.718750,5403243.000000,314.570007,0.8,0.8,0.8
513224.437500,5403431.000000,292.390015,0.8,0.8,0.8
513551.937500,5403275.000000,300.179993,0.8,0.8,0.8
513585.281250,5403548.000000,286.929993,0.8,0.8,0.8
513278.875000,5403543.500000,295.309998,0.8,0.8,0.8
513616.156250,5403740.500000,299.540009,0.8,0.8,0.8
513555.031250,5403754.000000,299.559998,0.8,0.8,0.8
513140.000000,5403411.000000,292.970001,0.8,0.8,0.8
513358.625000,5403578.000000,304.399994,0.8,0.8,0.8
513301.468750,5403530.000000,307.760010,0.8,0.8,0.8
513627.937500,5403615.000000,286.420013,0.8,0.8,0.8
513376.125000,5403385.000000,316.000000,0.8,0.8,0.8
513247.000000,5403270.500000,321.609985,0.8,0.8,0.8
513431.906250,5403248.000000,294.950012,0.8,0.8,0.8
513447.656250,5403290.000000,290.010010,0.8,0.8,0.8
513218.937500,5403570.500000,295.130005,0.8,0.8,0.8
513557.375000,5403239.000000,289.279999,0.8,0.8,0.8
513533.375000,5403218.000000,289.440002,0.8,0.8,0.8
513521.625000,5403373.000000,292.059998,0.8,0.8,0.8
513550.875000,5403363.000000,300.489990,0.8,0.8,0.8
513428.062500,5403613.500000,298.440002,0.8,0.8,0.8
513215.062500,5403717.500000,302.119995,0.8,0.8,0.8
513508.031250,5403376.000000,308.579987,0.8,0.8,0.8
513235.812500,5403625.000000,297.130005,0.8,0.8,0.8
513619.375000,5403244.000000,290.489990,0.8,0.8,0.8
513523.031250,5403460.000000,288.730011,0.8,0.8,0.8
513549.343750,5403440.500000,300.209991,0.8,0.8,0.8
513133.718750,5403327.000000,293.179993,0.8,0.8,0.8
513453.562500,5403322.000000,287.510010,0.8,0.8,0.8
513620.218750,5403736.500000,294.410004,0.8,0.8,0.8
513188.781250,5403308.500000,292.089996,0.8,0.8,0.8
513424.625000,5403688.500000,295.369995,0.8,0.8,0.8
513618.312500,5403410.500000,287.320007,0.8,0.8,0.8
513595.218750,5403233.000000,290.320007,0.8,0.8,0.8
513503.125000,5403504.000000,289.089996,0.8,0.8,0.8
513438.062500,5403412.500000,307.329987,0.8,0.8,0.8
513365.656250,5403530.000000,298.440002,0.8,0.8,0.8
513567.812500,5403276.500000,293.730011,0.8,0.8,0.8
513607.500000,5403554.500000,289.859985,0.8,0.8,0.8
513297.937500,5403293.000000,304.230011,0.8,0.8,0.8
513220.375000,5403283.500000,312.690002,0.8,0.8,0.8
513593.000000,5403503.500000,295.149994,0.8,0.8,0.8
513412.687500,5403462.500000,301.450012,0.8,0.8,0.8
513605.531250,5403272.000000,288.920013,0.8,0.8,0.8
513447.406250,5403607.500000,294.299988,0.8,0.8,0.8
513606.093750,5403647.000000,287.190002,0.8,0.8,0.8
513494.187500,5403410.000000,288.730011,0.8,0.8,0.8
513249.250000,5403616.000000,295.000000,0.8,0.8,0.8
513536.031250,5403557.000000,290.369995,0.8,0.8,0.8
513571.593750,5403211.000000,306.329987,0.8,0.8,0.8
513559.812500,5403499.000000,288.059998,0.8,0.8,0.8
513478.750000,5403392.500000,290.739990,0.8,0.8,0.8
513559.562500,5403201.500000,290.100006,0.8,0.8,0.8
513459.593750,5403273.500000,289.660004,0.8,0.8,0.8
513565.843750,5403285.500000,302.790009,0.8,0.8,0.8
513603.031250,5403542.000000,304.799988,0.8,0.8,0.8
513231.531250,5403693.500000,300.929993,0.8,0.8,0.8
513209.062500,5403632.500000,296.779999,0.8,0.8,0.8
513353.000000,5403598.500000,301.440002,0.8,0.8,0.8
513594.906250,5403499.000000,304.369995,0.8,0.8,0.8
513524.593750,5403631.000000,295.309998,0.8,0.8,0.8
513477.375000,5403197.500000,297.250000,0.8,0.8,0.8
513175.437500,5403230.000000,304.279999,0.8,0.8,0.8
513191.593750,5403568.500000,297.459991,0.8,0.8,0.8
513515.906250,5403359.500000,287.670013,0.8,0.8,0.8
513497.625000,5403642.500000,294.940002,0.8,0.8,0.8
513143.625000,5403651.500000,304.579987,0.8,0.8,0.8
513218.062500,5403718.000000,313.209991,0.8,0.8,0.8
513275.531250,5403440.500000,310.369995,0.8,0.8,0.8
513398.218750,5403442.000000,301.519989,0.8,0.8,0.8
513339.125000,5403457.500000,312.929993,0.8,0.8,0.8
513361.125000,5403705.000000,294.489990,0.8,0.8,0.8
513550.031250,5403284.000000,304.869995,0.8,0.8,0.8
513535.093750,5403508.500000,288.779999,0.8,0.8,0.8
513411.968750,5403718.500000,295.220001,0.8,0.8,0.8
513629.281250,5403567.000000,289.309998,0.8,0.8,0.8
513305.031250,5403277.500000,293.160004,0.8,0.8,0.8
513477.812500,5403689.000000,294.869995,0.8,0.8,0.8
513313.875000,5403375.000000,294.489990,0.8,0.8,0.8
513342.531250,5403250.000000,290.320007,0.8,0.8,0.8
513167.000000,5403365.500000,321.320007,0.8,0.8,0.8
513333.750000,5403526.000000,301.429993,0.8,0.8,0.8
513288.156250,5403727.000000,320.359985,0.8,0.8,0.8
513499.281250,5403529.000000,301.480011,0.8,0.8,0.8
513501.406250,5403241.000000,295.799988,0.8,0.8,0.8
513154.718750,5403408.500000,301.989990,0.8,0.8,0.8
513554.781250,5403294.500000,290.649994,0.8,0.8,0.8
513148.312500,5403634.500000,298.640015,0.8,0.8,0.8
513248.937500,5403417.000000,291.640015,0.8,0.8,0.8
513286.843750,5403585.500000,295.220001,0.8,0.8,0.8
513241.218750,5403264.500000,321.750000,0.8,0.8,0.8
513393.218750,5403410.500000,315.410004,0.8,0.8,0.8
513558.656250,5403657.500000,294.239990,0.8,0.8,0.8
513626.250000,5403675.000000,299.890015,0.8,0.8,0.8
513370.718750,5403301.000000,291.179993,0.8,0.8,0.8
513449.500000,5403456.000000,294.339996,0.8,0.8,0.8
513577.843750,5403455.500000,287.230011,0.8,0.8,0.8
513163.968750,5403262.500000,292.799988,0.8,0.8,0.8
513403.000000,5403260.000000,310.160004,0.8,0.8,0.8
513227.093750,5403550.500000,295.049988,0.8,0.8,0.8
513427.437500,5403200.000000,289.459991,0.8,0.8,0.8
513527.906250,5403251.500000,289.070007,0.8,0.8,0.8
513151.468750,5403668.000000,325.579987,0.8,0.8,0.8
513608.906250,5403272.500000,288.959991,0.8,0.8,0.8
513257.406250,5403503.000000,301.500000,0.8,0.8,0.8
513398.687500,5403626.000000,301.519989,0.8,0.8,0.8
513624.750000,5403672.000000,286.959991,0.8,0.8,0.8
513295.937500,5403725.000000,301.089996,0.8,0.8,0.8
513542.812500,5403315.500000,288.179993,0.8,0.8,0.8
513379.250000,5403517.000000,294.329987,0.8,0.8,0.8
513416.281250,5403724.000000,295.239990,0.8,0.8,0.8
513444.312500,5403201.000000,289.260010,0.8,0.8,0.8
513495.281250,5403384.500000,288.779999,0.8,0.8,0.8
513480.718750,5403257.500000,312.829987,0.8,0.8,0.8
513235.937500,5403315.500000,291.920013,0.8,0.8,0.8
513568.125000,5403432.500000,287.549988,0.8,0.8,0.8
513301.375000,5403486.500000,304.700012,0.8,0.8,0.8
513451.031250,5403704.000000,295.450012,0.8,0.8,0.8
513139.687500,5403391.000000,300.049988,0.8,0.8,0.8
513591.687500,5403264.000000,289.470001,0.8,0.8,0.8
513621.093750,5403474.000000,305.820007,0.8,0.8,0.8
513122.156250,5403365.500000,296.029999,0.8,0.8,0.8
513177.562500,5403704.000000,301.959991,0.8,0.8,0.8
513349.687500,5403523.000000,298.510010,0.8,0.8,0.8
513173.531250,5403671.000000,297.160004,0.8,0.8,0.8
513483.687500,5403194.000000,289.269989,0.8,0.8,0.8
513532.750000,5403459.500000,288.369995,0.8,0.8,0.8
513194.218750,5403387.000000,300.859985,0.8,0.8,0.8
513497.812500,5403365.000000,298.179993,0.8,0.8,0.8
513303.531250,5403427.500000,303.570007,0.8,0.8,0.8
513319.375000,5403600.000000,328.869995,0.8,0.8,0.8
513144.125000,5403623.000000,298.660004,0.8,0.8,0.8
513437.781250,5403340.000000,299.500000,0.8,0.8,0.8
513327.250000,5403667.000000,294.989990,0.8,0.8,0.8
513241.937500,5403392.500000,291.369995,0.8,0.8,0.8
513256.843750,5403595.500000,295.929993,0.8,0.8,0.8
513566.281250,5403440.000000,287.640015,0.8,0.8,0.8
513416.093750,5403534.000000,304.649994,0.8,0.8,0.8
513419.812500,5403580.000000,294.359985,0.8,0.8,0.8
513379.031250,5403205.500000,290.429993,0.8,0.8,0.8
513296.000000,5403705.500000,300.869995,0.8,0.8,0.8
513344.718750,5403647.000000,329.890015,0.8,0.8,0.8
513362.375000,5403231.500000,299.079987,0.8,0.8,0.8
513595.718750,5403529.500000,305.309998,0.8,0.8,0.8
513401.500000,5403699.500000,295.140015,0.8,0.8,0.8
513311.687500,5403348.000000,290.829987,0.8,0.8,0.8
513537.343750,5403529.000000,288.750000,0.8,0.8,0.8
513133.500000,5403555.000000,317.440002,0.8,0.8,0.8
513400.468750,5403317.000000,290.529999,0.8,0.8,0.8
513217.875000,5403532.000000,301.369995,0.8,0.8,0.8
513535.312500,5403550.000000,288.559998,0.8,0.8,0.8
513593.312500,5403241.500000,289.989990,0.8,0.8,0.8
513298.062500,5403710.000000,300.869995,0.8,0.8,0.8
513473.593750,5403475.000000,307.049988,0.8,0.8,0.8
513628.250000,5403641.500000,301.209991,0.8,0.8,0.8
513169.687500,5403292.000000,292.579987,0.8,0.8,0.8
513125.906250,5403400.000000,293.619995,0.8,0.8,0.8
513419.625000,5403391.500000,346.820007,0.8,0.8,0.8
513277.000000,5403593.500000,295.519989,0.8,0.8,0.8
513420.500000,5403519.000000,301.619995,0.8,0.8,0.8
513455.718750,5403287.000000,290.010010,0.8,0.8,0.8
513422.781250,5403418.500000,304.700012,0.8,0.8,0.8
513245.375000,5403524.000000,294.600006,0.8,0.8,0.8
513613.062500,5403567.000000,300.619995,0.8,0.8,0.8
513516.312500,5403461.500000,300.529999,0.8,0.8,0.8
513457.781250,5403724.500000,294.440002,0.8,0.8,0.8
513151.125000,5403233.500000,299.589996,0.8,0.8,0.8
513623.687500,5403596.500000,288.260010,0.8,0.8,0.8
513622.031250,5403555.500000,305.200012,0.8,0.8,0.8
513585.375000,5403371.500000,287.929993,0.8,0.8,0.8
513594.875000,5403372.000000,287.859985,0.8,0.8,0.8
513593.625000,5403202.500000,296.190002,0.8,0.8,0.8
513547.250000,5403284.000000,314.350006,0.8,0.8,0.8
513326.375000,5403250.500000,311.140015,0.8,0.8,0.8
513209.718750,5403423.500000,292.339996,0.8,0.8,0.8
513291.687500,5403744.500000,301.239990,0.8,0.8,0.8
513492.812500,5403448.500000,289.239990,0.8,0.8,0.8
513245.375000,5403363.500000,303.709991,0.8,0.8,0.8
513268.656250,5403535.000000,294.829987,0.8,0.8,0.8
513308.218750,5403594.500000,308.760010,0.8,0.8,0.8
513615.843750,5403620.500000,290.700012,0.8,0.8,0.8
513487.843750,5403243.000000,289.589996,0.8,0.8,0.8
513369.343750,5403238.000000,300.160004,0.8,0.8,0.8
513568.093750,5403605.000000,287.869995,0.8,0.8,0.8
513554.000000,5403687.000000,299.940002,0.8,0.8,0.8
513145.281250,5403267.500000,293.480011,0.8,0.8,0.8
513149.218750,5403591.500000,297.070007,0.8,0.8,0.8
513169.812500,5403329.500000,319.000000,0.8,0.8,0.8
513399.343750,5403422.500000,304.670013,0.8,0.8,0.8
513365.593750,5403561.000000,304.670013,0.8,0.8,0.8
513253.750000,5403553.500000,296.380005,0.8,0.8,0.8
513270.437500,5403616.000000,294.950012,0.8,0.8,0.8
513285.843750,5403560.500000,295.609985,0.8,0.8,0.8
513266.718750,5403322.000000,295.200012,0.8,0.8,0.8
513550.156250,5403344.000000,288.059998,0.8,0.8,0.8
513332.843750,5403375.000000,290.910004,0.8,0.8,0.8
513266.187500,5403280.000000,321.640015,0.8,0.8,0.8
513491.125000,5403650.500000,299.500000,0.8,0.8,0.8
513397.937500,5403386.500000,315.959991,0.8,0.8,0.8
513494.812500,5403510.500000,294.809998,0.8,0.8,0.8
513408.875000,5403503.500000,298.359985,0.8,0.8,0.8
513570.906250,5403752.500000,294.309998,0.8,0.8,0.8
513485.625000,5403342.000000,290.700012,0.8,0.8,0.8
513517.093750,5403462.000000,288.649994,0.8,0.8,0.8
513567.093750,5403437.000000,287.459991,0.8,0.8,0.8
513515.437500,5403313.500000,288.019989,0.8,0.8,0.8
513381.156250,5403576.500000,304.540009,0.8,0.8,0.8
513500.937500,5403735.500000,294.420013,0.8,0.8,0.8
513624.687500,5403383.000000,287.559998,0.8,0.8,0.8
513147.281250,5403253.500000,293.250000,0.8,0.8,0.8
513607.562500,5403548.500000,304.739990,0.8,0.8,0.8
513129.375000,5403414.500000,316.269989,0.8,0.8,0.8
513278.125000,5403586.000000,295.359985,0.8,0.8,0.8
513486.375000,5403560.000000,304.660004,0.8,0.8,0.8
513287.937500,5403435.500000,306.649994,0.8,0.8,0.8
513533.218750,5403499.500000,288.679993,0.8,0.8,0.8
513184.968750,5403359.500000,318.920013,0.8,0.8,0.8
513358.656250,5403461.000000,301.779999,0.8,0.8,0.8
513526.750000,5403230.500000,292.010010,0.8,0.8,0.8
513503.687500,5403384.000000,296.000000,0.8,0.8,0.8
513545.906250,5403289.500000,313.859985,0.8,0.8,0.8
513599.750000,5403311.500000,298.220001,0.8,0.8,0.8
513569.375000,5403627.000000,289.720001,0.8,0.8,0.8
513257.531250,5403718.000000,302.619995,0.8,0.8,0.8
513593.531250,5403506.000000,288.929993,0.8,0.8,0.8
513265.843750,5403660.500000,300.429993,0.8,0.8,0.8
513383.312500,5403510.000000,304.779999,0.8,0.8,0.8
513156.125000,5403366.000000,293.559998,0.8,0.8,0.8
513264.562500,5403386.500000,291.339996,0.8,0.8,0.8
513264.062500,5403597.500000,296.059998,0.8,0.8,0.8
513131.000000,5403650.000000,324.950012,0.8,0.8,0.8
513373.375000,5403576.500000,304.660004,0.8,0.8,0.8
513612.500000,5403518.500000,300.059998,0.8,0.8,0.8
513139.062500,5403554.500000,317.420013,0.8,0.8,0.8
513477.843750,5403434.000000,289.380005,0.8,0.8,0.8
513285.218750,5403635.000000,307.809998,0.8,0.8,0.8
513306.187500,5403565.500000,295.420013,0.8,0.8,0.8
513448.875000,5403562.500000,301.399994,0.8,0.8,0.8
513520.781250,5403645.000000,294.779999,0.8,0.8,0.8
513518.687500,5403403.000000,304.739990,0.8,0.8,0.8
513251.218750,5403749.000000,303.779999,0.8,0.8,0.8
513579.031250,5403299.500000,306.679993,0.8,0.8,0.8
513234.937500,5403258.500000,314.209991,0.8,0.8,0.8
513446.250000,5403196.500000,294.230011,0.8,0.8,0.8
513618.000000,5403617.000000,306.339996,0.8,0.8,0.8
513499.906250,5403646.500000,294.929993,0.8,0.8,0.8
513348.500000,5403412.000000,303.959991,0.8,0.8,0.8
513491.093750,5403643.500000,294.589996,0.8,0.8,0.8
513456.812500,5403238.000000,303.850006,0.8,0.8,0.8
513450.437500,5403294.500000,290.220001,0.8,0.8,0.8
513398.843750,5403258.000000,310.100006,0.8,0.8,0.8
513528.125000,5403318.000000,316.070007,0.8,0.8,0.8
513361.562500,5403281.000000,289.000000,0.8,0.8,0.8
513439.875000,5403595.500000,304.420013,0.8,0.8,0.8
513610.468750,5403412.500000,287.540009,0.8,0.8,0.8
513289.750000,5403405.500000,291.130005,0.8,0.8,0.8
513170.406250,5403582.500000,323.869995,0.8,0.8,0.8
513483.500000,5403408.000000,289.100006,0.8,0.8,0.8
513257.343750,5403757.000000,304.369995,0.8,0.8,0.8
513610.437500,5403326.500000,310.320007,0.8,0.8,0.8
513345.375000,5403296.000000,310.470001,0.8,0.8,0.8
513219.937500,5403503.500000,295.399994,0.8,0.8,0.8
513323.687500,5403597.000000,329.799988,0.8,0.8,0.8
513287.281250,5403307.000000,314.390015,0.8,0.8,0.8
513363.531250,5403726.500000,294.500000,0.8,0.8,0.8
513472.093750,5403639.000000,294.929993,0.8,0.8,0.8
513563.156250,5403472.500000,289.190002,0.8,0.8,0.8
513444.218750,5403471.500000,301.540009,0.8,0.8,0.8
513142.062500,5403449.500000,293.140015,0.8,0.8,0.8
513179.281250,5403518.500000,302.839996,0.8,0.8,0.8
513523.062500,5403369.000000,289.630005,0.8,0.8,0.8
513377.250000,5403477.500000,301.579987,0.8,0.8,0.8
513226.375000,5403753.000000,305.250000,0.8,0.8,0.8
513586.625000,5403268.000000,289.079987,0.8,0.8,0.8
513491.093750,5403224.500000,289.440002,0.8,0.8,0.8
513413.906250,5403697.500000,299.470001,0.8,0.8,0.8
513203.968750,5403547.500000,301.929993,0.8,0.8,0.8
513201.500000,5403542.500000,295.390015,0.8,0.8,0.8
513433.187500,5403542.000000,294.299988,0.8,0.8,0.8
513192.625000,5403453.000000,292.929993,0.8,0.8,0.8
513216.187500,5403493.500000,294.040009,0.8,0.8,0.8
513479.093750,5403256.500000,307.779999,0.8,0.8,0.8
513544.281250,5403227.000000,313.329987,0.8,0.8,0.8
513558.562500,5403368.500000,301.040009,0.8,0.8,0.8
513615.562500,5403530.500000,314.350006,0.8,0.8,0.8
513398.125000,5403727.000000,333.040009,0.8,0.8,0.8
513451.562500,5403432.000000,307.859985,0.8,0.8,0.8
513520.937500,5403652.500000,294.339996,0.8,0.8,0.8
513247.156250,5403500.000000,294.290009,0.8,0.8,0.8
513165.031250,5403330.500000,317.859985,0.8,0.8,0.8
513340.000000,5403400.000000,307.019989,0.8,0.8,0.8
513495.468750,5403400.000000,288.609985,0.8,0.8,0.8
513367.218750,5403281.500000,289.619995,0.8,0.8,0.8
513322.562500,5403270.500000,298.200012,0.8,0.8,0.8
513444.093750,5403594.500000,301.369995,0.8,0.8,0.8
513126.843750,5403733.500000,320.299988,0.8,0.8,0.8
513495.687500,5403257.500000,289.760010,0.8,0.8,0.8
513386.812500,5403731.500000,329.980011,0.8,0.8,0.8
513211.312500,5403657.500000,297.329987,0.8,0.8,0.8
513242.187500,5403652.000000,298.869995,0.8,0.8,0.8
513205.437500,5403424.000000,292.339996,0.8,0.8,0.8
513543.375000,5403270.000000,289.010010,0.8,0.8,0.8
513393.062500,5403235.500000,305.630005,0.8,0.8,0.8
513514.125000,5403743.000000,294.489990,0.8,0.8,0.8
513564.843750,5403431.000000,287.579987,0.8,0.8,0.8
513175.156250,5403509.500000,300.359985,0.8,0.8,0.8
513598.406250,5403315.000000,288.369995,0.8,0.8,0.8
513257.156250,5403638.500000,294.829987,0.8,0.8,0.8
513268.125000,5403349.000000,303.609985,0.8,0.8,0.8
513267.656250,5403224.000000,296.619995,0.8,0.8,0.8
513345.625000,5403560.500000,304.640015,0.8,0.8,0.8
513323.937500,5403194.000000,302.260010,0.8,0.8,0.8
513248.187500,5403340.500000,288.260010,0.8,0.8,0.8
513146.187500,5403618.500000,298.600006,0.8,0.8,0.8
513302.468750,5403715.000000,301.029999,0.8,0.8,0.8
513342.375000,5403517.000000,304.799988,0.8,0.8,0.8
513443.593750,5403559.000000,298.230011,0.8,0.8,0.8
513391.593750,5403359.000000,303.920013,0.8,0.8,0.8
513451.312500,5403247.500000,292.940002,0.8,0.8,0.8
513552.187500,5403226.500000,289.420013,0.8,0.8,0.8
513465.656250,5403250.500000,288.200012,0.8,0.8,0.8
513393.843750,5403437.500000,301.630005,0.8,0.8,0.8
513602.125000,5403651.000000,287.220001,0.8,0.8,0.8
513226.093750,5403543.500000,304.579987,0.8,0.8,0.8
513547.656250,5403402.500000,287.850006,0.8,0.8,0.8
513447.125000,5403601.500000,301.440002,0.8,0.8,0.8
513135.375000,5403192.500000,303.779999,0.8,0.8,0.8
513320.000000,5403617.000000,295.049988,0.8,0.8,0.8
513551.656250,5403258.000000,289.260010,0.8,0.8,0.8
513187.875000,5403512.500000,294.179993,0.8,0.8,0.8
513511.968750,5403384.500000,301.100006,0.8,0.8,0.8
513491.187500,5403575.500000,304.739990,0.8,0.8,0.8
513629.375000,5403281.500000,300.329987,0.8,0.8,0.8
513160.562500,5403448.000000,292.970001,0.8,0.8,0.8
513448.750000,5403729.000000,295.339996,0.8,0.8,0.8
513201.687500,5403314.000000,291.880005,0.8,0.8,0.8
513223.312500,5403213.000000,310.440002,0.8,0.8,0.8
513126.250000,5403371.500000,295.950012,0.8,0.8,0.8
513433.468750,5403395.500000,299.640015,0.8,0.8,0.8
513383.375000,5403235.000000,310.059998,0.8,0.8,0.8
513210.750000,5403285.000000,312.640015,0.8,0.8,0.8
513494.875000,5403215.000000,292.720001,0.8,0.8,0.8
513509.593750,5403254.000000,289.179993,0.8,0.8,0.8
513168.218750,5403396.000000,292.920013,0.8,0.8,0.8
513216.093750,5403685.500000,300.890015,0.8,0.8,0.8
513575.593750,5403475.500000,302.690002,0.8,0.8,0.8
513603.625000,5403314.000000,296.839996,0.8,0.8,0.8
513392.500000,5403198.500000,299.540009,0.8,0.8,0.8
513329.031250,5403735.000000,330.480011,0.8,0.8,0.8
513519.218750,5403237.000000,317.779999,0.8,0.8,0.8
513529.187500,5403370.000000,300.779999,0.8,0.8,0.8
513602.062500,5403734.500000,294.329987,0.8,0.8,0.8
513266.531250,5403545.000000,295.130005,0.8,0.8,0.8
513213.812500,5403395.500000,321.959991,0.8,0.8,0.8
513364.812500,5403388.500000,306.829987,0.8,0.8,0.8
513611.250000,5403547.000000,292.779999,0.8,0.8,0.8
513197.062500,5403756.000000,311.850006,0.8,0.8,0.8
513204.343750,5403563.000000,295.059998,0.8,0.8,0.8
513324.968750,5403603.500000,329.920013,0.8,0.8,0.8
513571.312500,5403212.000000,291.799988,0.8,0.8,0.8
513488.312500,5403489.500000,290.209991,0.8,0.8,0.8
513572.312500,5403357.500000,288.100006,0.8,0.8,0.8
513309.656250,5403514.000000,304.720001,0.8,0.8,0.8
513345.468750,5403449.500000,313.339996,0.8,0.8,0.8
513312.656250,5403558.500000,297.109985,0.8,0.8,0.8
513375.656250,5403715.500000,294.549988,0.8,0.8,0.8
513297.937500,5403747.000000,299.890015,0.8,0.8,0.8
513311.687500,5403223.000000,297.720001,0.8,0.8,0.8
513149.750000,5403220.500000,303.410004,0.8,0.8,0.8
513326.968750,5403420.000000,303.540009,0.8,0.8,0.8
513409.468750,5403757.000000,329.929993,0.8,0.8,0.8
513404.437500,5403439.000000,301.730011,0.8,0.8,0.8
513181.437500,5403716.500000,318.420013,0.8,0.8,0.8
513241.718750,5403412.500000,291.859985,0.8,0.8,0.8
513614.812500,5403545.500000,301.970001,0.8,0.8,0.8
513562.593750,5403203.500000,290.049988,0.8,0.8,0.8
513396.937500,5403709.500000,295.029999,0.8,0.8,0.8
513348.375000,5403235.000000,299.230011,0.8,0.8,0.8
513531.375000,5403737.000000,301.059998,0.8,0.8,0.8
513559.781250,5403737.500000,294.209991,0.8,0.8,0.8
513262.625000,5403727.000000,320.429993,0.8,0.8,0.8
513464.218750,5403603.500000,304.660004,0.8,0.8,0.8
513449.656250,5403220.500000,289.140015,0.8,0.8,0.8
513152.000000,5403209.000000,299.200012,0.8,0.8,0.8
513391.062500,5403487.000000,304.700012,0.8,0.8,0.8
513438.562500,5403455.000000,304.559998,0.8,0.8,0.8
513547.937500,5403426.000000,299.290009,0.8,0.8,0.8
513466.468750,5403541.000000,299.250000,0.8,0.8,0.8
513458.250000,5403425.000000,290.290009,0.8,0.8,0.8
513137.406250,5403490.000000,293.619995,0.8,0.8,0.8
513157.312500,5403447.500000,293.109985,0.8,0.8,0.8
513294.968750,5403494.000000,301.790009,0.8,0.8,0.8
513453.718750,5403660.000000,295.100006,0.8,0.8,0.8
513620.906250,5403330.500000,288.100006,0.8,0.8,0.8
513598.125000,5403614.500000,302.700012,0.8,0.8,0.8
513517.312500,5403227.000000,313.000000,0.8,0.8,0.8
513513.312500,5403297.000000,289.820007,0.8,0.8,0.8
513320.843750,5403661.000000,294.540009,0.8,0.8,0.8
513216.250000,5403501.000000,294.290009,0.8,0.8,0.8
513608.218750,5403232.000000,290.350006,0.8,0.8,0.8
513199.312500,5403535.000000,294.660004,0.8,0.8,0.8
513450.375000,5403452.500000,301.549988,0.8,0.8,0.8
513602.375000,5403506.500000,287.640015,0.8,0.8,0.8
513502.218750,5403436.500000,288.940002,0.8,0.8,0.8
513604.343750,5403460.000000,287.230011,0.8,0.8,0.8
513616.156250,5403390.500000,287.480011,0.8,0.8,0.8
513324.437500,5403222.000000,290.420013,0.8,0.8,0.8
513327.968750,5403604.500000,329.859985,0.8,0.8,0.8
513501.656250,5403372.000000,288.190002,0.8,0.8,0.8
513591.375000,5403347.000000,303.100006,0.8,0.8,0.8
513152.437500,5403629.000000,298.690002,0.8,0.8,0.8
513584.281250,5403327.000000,288.369995,0.8,0.8,0.8
513490.750000,5403521.000000,294.290009,0.8,0.8,0.8
513305.375000,5403237.500000,314.239990,0.8,0.8,0.8
513360.125000,5403604.000000,294.450012,0.8,0.8,0.8
513489.781250,5403398.500000,301.160004,0.8,0.8,0.8
513604.343750,5403248.500000,291.130005,0.8,0.8,0.8
513203.562500,5403587.000000,295.059998,0.8,0.8,0.8
513537.875000,5403225.500000,289.100006,0.8,0.8,0.8
513328.031250,5403190.000000,306.059998,0.8,0.8,0.8
513295.312500,5403241.000000,314.250000,0.8,0.8,0.8
513158.562500,5403452.500000,293.049988,0.8,0.8,0.8
513485.718750,5403371.500000,287.899994,0.8,0.8,0.8
513172.843750,5403332.000000,318.920013,0.8,0.8,0.8
513215.968750,5403537.000000,294.899994,0.8,0.8,0.8
513513.437500,5403514.000000,288.859985,0.8,0.8,0.8
513232.937500,5403254.000000,314.239990,0.8,0.8,0.8
513515.562500,5403544.000000,307.260010,0.8,0.8,0.8
513467.156250,5403599.500000,302.480011,0.8,0.8,0.8
513476.656250,5403529.500000,301.410004,0.8,0.8,0.8
513527.437500,5403385.000000,288.750000,0.8,0.8,0.8
513524.781250,5403449.500000,288.549988,0.8,0.8,0.8
513562.687500,5403215.000000,313.429993,0.8,0.8,0.8
513463.375000,5403733.000000,294.480011,0.8,0.8,0.8
513436.281250,5403456.500000,294.429993,0.8,0.8,0.8
513374.937500,5403593.000000,294.410004,0.8,0.8,0.8
513418.968750,5403504.500000,294.350006,0.8,0.8,0.8
513182.437500,5403647.500000,324.420013,0.8,0.8,0.8
513268.500000,5403524.500000,294.600006,0.8,0.8,0.8
513221.468750,5403470.000000,293.040009,0.8,0.8,0.8
513129.437500,5403556.000000,296.989990,0.8,0.8,0.8
513553.031250,5403300.000000,288.220001,0.8,0.8,0.8
513201.062500,5403482.000000,293.589996,0.8,0.8,0.8
513389.031250,5403437.500000,304.619995,0.8,0.8,0.8
513477.281250,5403759.000000,301.170013,0.8,0.8,0.8
513430.968750,5403684.500000,294.470001,0.8,0.8,0.8
513465.375000,5403723.000000,295.410004,0.8,0.8,0.8
513312.562500,5403532.000000,302.790009,0.8,0.8,0.8
513593.906250,5403576.500000,316.410004,0.8,0.8,0.8
513310.406250,5403556.000000,295.609985,0.8,0.8,0.8
513354.093750,5403336.500000,290.739990,0.8,0.8,0.8
513561.250000,5403229.500000,315.760010,0.8,0.8,0.8
513618.718750,5403613.000000,286.950012,0.8,0.8,0.8
513197.250000,5403536.500000,295.299988,0.8,0.8,0.8
513232.187500,5403759.000000,315.179993,0.8,0.8,0.8
513613.812500,5403220.500000,291.500000,0.8,0.8,0.8
513511.468750,5403599.500000,295.309998,0.8,0.8,0.8
513464.875000,5403343.500000,287.109985,0.8,0.8,0.8
513526.625000,5403373.500000,303.170013,0.8,0.8,0.8
513459.843750,5403190.000000,289.100006,0.8,0.8,0.8
513190.062500,5403694.000000,309.500000,0.8,0.8,0.8
513159.843750,5403349.500000,318.980011,0.8,0.8,0.8
513547.562500,5403326.500000,293.839996,0.8,0.8,0.8
513615.500000,5403254.000000,302.250000,0.8,0.8,0.8
513409.093750,5403348.000000,290.209991,0.8,0.8,0.8
513365.343750,5403192.000000,309.600006,0.8,0.8,0.8
513626.718750,5403294.500000,288.350006,0.8,0.8,0.8
513372.000000,5403538.000000,304.619995,0.8,0.8,0.8
513199.281250,5403253.000000,292.130005,0.8,0.8,0.8
513582.375000,5403715.000000,294.239990,0.8,0.8,0.8
513428.281250,5403245.500000,290.309998,0.8,0.8,0.8
513468.593750,5403259.500000,291.260010,0.8,0.8,0.8
513462.187500,5403451.000000,306.220001,0.8,0.8,0.8
513162.187500,5403298.500000,318.260010,0.8,0.8,0.8
513560.750000,5403376.000000,308.380005,0.8,0.8,0.8
513628.687500,5403654.000000,290.049988,0.8,0.8,0.8
513526.312500,5403613.000000,294.959991,0.8,0.8,0.8
513594.875000,5403577.000000,314.070007,0.8,0.8,0.8
513301.843750,5403231.500000,314.299988,0.8,0.8,0.8
513242.031250,5403621.000000,297.279999,0.8,0.8,0.8
513376.593750,5403411.500000,313.200012,0.8,0.8,0.8
513450.531250,5403197.500000,290.779999,0.8,0.8,0.8
513531.875000,5403394.000000,302.029999,0.8,0.8,0.8
513473.125000,5403254.500000,289.589996,0.8,0.8,0.8
513191.375000,5403705.500000,302.200012,0.8,0.8,0.8
513596.562500,5403274.500000,292.179993,0.8,0.8,0.8
513158.093750,5403647.000000,319.489990,0.8,0.8,0.8
513369.468750,5403650.500000,303.529999,0.8,0.8,0.8
513222.343750,5403401.000000,291.959991,0.8,0.8,0.8
513217.812500,5403342.500000,292.299988,0.8,0.8,0.8
513491.687500,5403656.500000,299.529999,0.8,0.8,0.8
513603.500000,5403277.000000,303.410004,0.8,0.8,0.8
513342.281250,5403407.000000,303.920013,0.8,0.8,0.8
513530.000000,5403245.500000,314.549988,0.8,0.8,0.8
513361.343750,5403239.000000,313.079987,0.8,0.8,0.8
513546.343750,5403519.000000,288.480011,0.8,0.8,0.8
513457.343750,5403477.000000,304.660004,0.8,0.8,0.8
513536.187500,5403258.500000,289.380005,0.8,0.8,0.8
513465.937500,5403354.500000,290.529999,0.8,0.8,0.8
513273.406250,5403238.500000,314.250000,0.8,0.8,0.8
513338.093750,5403215.500000,298.859985,0.8,0.8,0.8
513155.937500,5403210.500000,304.649994,0.8,0.8,0.8
513594.156250,5403680.500000,294.220001,0.8,0.8,0.8
513317.156250,5403606.000000,330.179993,0.8,0.8,0.8
513444.156250,5403386.500000,289.760010,0.8,0.8,0.8
513501.718750,5403324.500000,295.250000,0.8,0.8,0.8
513597.781250,5403358.500000,303.429993,0.8,0.8,0.8
513484.125000,5403603.500000,304.730011,0.8,0.8,0.8
513173.000000,5403276.000000,292.579987,0.8,0.8,0.8
513262.968750,5403571.500000,295.369995,0.8,0.8,0.8
513217.343750,5403753.000000,313.230011,0.8,0.8,0.8
513594.062500,5403578.000000,311.760010,0.8,0.8,0.8
513581.343750,5403505.500000,296.380005,0.8,0.8,0.8
513194.937500,5403638.000000,306.489990,0.8,0.8,0.8
513475.312500,5403251.500000,294.450012,0.8,0.8,0.8
513305.062500,5403346.500000,290.940002,0.8,0.8,0.8
513480.656250,5403360.500000,290.470001,0.8,0.8,0.8
513216.968750,5403387.500000,318.359985,0.8,0.8,0.8
513557.375000,5403285.500000,320.420013,0.8,0.8,0.8
513329.281250,5403574.000000,296.019989,0.8,0.8,0.8
513615.500000,5403546.000000,304.420013,0.8,0.8,0.8
513313.781250,5403343.500000,295.609985,0.8,0.8,0.8
513517.937500,5403377.000000,289.799988,0.8,0.8,0.8
513617.656250,5403629.500000,297.559998,0.8,0.8,0.8
513371.312500,5403533.000000,304.709991,0.8,0.8,0.8
513363.375000,5403699.500000,295.019989,0.8,0.8,0.8
513153.437500,5403749.500000,314.369995,0.8,0.8,0.8
513503.062500,5403601.000000,295.309998,0.8,0.8,0.8
513581.125000,5403508.000000,299.519989,0.8,0.8,0.8
513473.875000,5403230.500000,304.429993,0.8,0.8,0.8
513596.000000,5403262.000000,291.190002,0.8,0.8,0.8
513253.250000,5403418.500000,291.600006,0.8,0.8,0.8
513239.906250,5403458.000000,289.420013,0.8,0.8,0.8
513316.531250,5403737.500000,301.600006,0.8,0.8,0.8
513409.718750,5403586.500000,304.579987,0.8,0.8,0.8
513548.062500,5403338.000000,288.049988,0.8,0.8,0.8
513270.437500,5403759.500000,320.410004,0.8,0.8,0.8
513306.718750,5403665.500000,311.600006,0.8,0.8,0.8
513395.000000,5403753.500000,295.320007,0.8,0.8,0.8
513552.593750,5403218.000000,291.230011,0.8,0.8,0.8
513300.781250,5403427.500000,306.730011,0.8,0.8,0.8
513258.218750,5403451.000000,298.829987,0.8,0.8,0.8
513123.125000,5403220.000000,308.489990,0.8,0.8,0.8
513141.000000,5403296.000000,293.570007,0.8,0.8,0.8
513417.031250,5403752.500000,329.970001,0.8,0.8,0.8
513489.218750,5403395.000000,288.690002,0.8,0.8,0.8
513505.562500,5403286.000000,289.540009,0.8,0.8,0.8
513609.031250,5403331.500000,302.209991,0.8,0.8,0.8
513393.718750,5403754.000000,298.250000,0.8,0.8,0.8
513603.187500,5403381.000000,287.649994,0.8,0.8,0.8
513460.156250,5403370.000000,290.290009,0.8,0.8,0.8
513513.156250,5403580.000000,294.500000,0.8,0.8,0.8
513458.968750,5403702.500000,300.029999,0.8,0.8,0.8
513482.343750,5403567.000000,299.420013,0.8,0.8,0.8
513584.031250,5403336.000000,301.149994,0.8,0.8,0.8
513588.906250,5403753.500000,294.369995,0.8,0.8,0.8
513542.781250,5403427.000000,292.269989,0.8,0.8,0.8
513515.500000,5403230.000000,317.709991,0.8,0.8,0.8
513514.937500,5403294.500000,295.959991,0.8,0.8,0.8
513375.437500,5403522.500000,298.179993,0.8,0.8,0.8
513405.625000,5403415.000000,312.940002,0.8,0.8,0.8
513491.781250,5403396.500000,301.670013,0.8,0.8,0.8
513622.031250,5403647.000000,292.660004,0.8,0.8,0.8
513435.250000,5403557.500000,304.709991,0.8,0.8,0.8
513226.687500,5403705.000000,301.420013,0.8,0.8,0.8
513333.125000,5403654.500000,303.279999,0.8,0.8,0.8
513130.937500,5403642.000000,325.779999,0.8,0.8,0.8
513192.750000,5403299.500000,293.529999,0.8,0.8,0.8
513434.468750,5403364.000000,295.019989,0.8,0.8,0.8
513195.000000,5403234.500000,314.529999,0.8,0.8,0.8
513437.093750,5403312.500000,295.570007,0.8,0.8,0.8
513264.312500,5403719.500000,320.429993,0.8,0.8,0.8
513398.312500,5403220.000000,323.149994,0.8,0.8,0.8
513494.968750,5403625.000000,295.269989,0.8,0.8,0.8
513441.156250,5403315.500000,292.549988,0.8,0.8,0.8
513249.937500,5403356.500000,310.390015,0.8,0.8,0.8
513337.218750,5403283.500000,310.040009,0.8,0.8,0.8
513305.343750,5403633.500000,295.070007,0.8,0.8,0.8
513564.093750,5403536.000000,287.899994,0.8,0.8,0.8
513268.250000,5403309.000000,312.730011,0.8,0.8,0.8
513235.312500,5403500.000000,294.369995,0.8,0.8,0.8
513489.562500,5403753.500000,294.429993,0.8,0.8,0.8
513442.687500,5403368.500000,289.890015,0.8,0.8,0.8
513322.843750,5403561.500000,295.589996,0.8,0.8,0.8
513273.000000,5403643.000000,329.950012,0.8,0.8,0.8
513536.437500,5403324.000000,306.570007,0.8,0.8,0.8
513558.718750,5403294.500000,291.049988,0.8,0.8,0.8
513530.843750,5403709.500000,294.380005,0.8,0.8,0.8
513215.500000,5403570.500000,307.899994,0.8,0.8,0.8
513591.812500,5403294.500000,288.679993,0.8,0.8,0.8
513621.000000,5403525.500000,286.899994,0.8,0.8,0.8
513509.625000,5403373.000000,303.529999,0.8,0.8,0.8
513315.687500,5403390.000000,292.119995,0.8,0.8,0.8
513176.656250,5403390.500000,302.450012,0.8,0.8,0.8
513234.156250,5403446.000000,292.399994,0.8,0.8,0.8
513335.531250,5403653.500000,303.649994,0.8,0.8,0.8
513150.406250,5403589.000000,322.010010,0.8,0.8,0.8
513400.687500,5403495.500000,304.720001,0.8,0.8,0.8
513375.750000,5403595.000000,294.350006,0.8,0.8,0.8
513547.125000,5403380.500000,304.190002,0.8,0.8,0.8
513357.656250,5403284.500000,288.970001,0.8,0.8,0.8
513508.250000,5403640.500000,295.609985,0.8,0.8,0.8
513143.906250,5403519.500000,299.369995,0.8,0.8,0.8
513389.125000,5403652.000000,294.390015,0.8,0.8,0.8
513149.562500,5403738.000000,305.100006,0.8,0.8,0.8
513244.343750,5403659.000000,299.359985,0.8,0.8,0.8
513517.437500,5403586.500000,295.239990,0.8,0.8,0.8
513494.687500,5403266.000000,289.440002,0.8,0.8,0.8
513318.375000,5403207.000000,296.890015,0.8,0.8,0.8
513190.843750,5403289.000000,292.429993,0.8,0.8,0.8
513279.281250,5403258.000000,314.220001,0.8,0.8,0.8
513517.312500,5403313.500000,288.209991,0.8,0.8,0.8
513615.531250,5403577.500000,289.000000,0.8,0.8,0.8
513170.593750,5403626.500000,321.869995,0.8,0.8,0.8
513153.718750,5403736.500000,318.179993,0.8,0.8,0.8
513334.968750,5403296.500000,310.100006,0.8,0.8,0.8
513629.281250,5403385.000000,287.559998,0.8,0.8,0.8
513126.500000,5403751.000000,310.359985,0.8,0.8,0.8
513317.281250,5403574.500000,295.100006,0.8,0.8,0.8
513438.875000,5403343.500000,292.010010,0.8,0.8,0.8
513535.187500,5403532.000000,288.779999,0.8,0.8,0.8
513589.937500,5403506.500000,304.040009,0.8,0.8,0.8
513334.031250,5403489.000000,301.619995,0.8,0.8,0.8
513403.406250,5403689.000000,294.420013,0.8,0.8,0.8
513592.000000,5403406.500000,291.040009,0.8,0.8,0.8
513608.375000,5403430.000000,304.350006,0.8,0.8,0.8
513524.750000,5403289.000000,289.640015,0.8,0.8,0.8
513259.937500,5403431.000000,310.480011,0.8,0.8,0.8
513256.062500,5403539.500000,295.190002,0.8,0.8,0.8
513579.125000,5403746.000000,299.839996,0.8,0.8,0.8
513493.843750,5403402.000000,288.790009,0.8,0.8,0.8
