x,y,z,r,g,b
513574.656250,5403155.500000,298.429993,0.8,0.8,0.8
513865.625000,5402816.500000,320.290009,0.8,0.8,0.8
513547.656250,5403000.500000,306.350006,0.8,0.8,0.8
513549.375000,5403276.000000,305.989990,0.8,0.8,0.8
513664.968750,5403194.000000,293.350006,0.8,0.8,0.8
513810.656250,5403071.500000,306.279999,0.8,0.8,0.8
513671.625000,5403092.500000,289.559998,0.8,0.8,0.8
513477.875000,5402835.000000,305.769989,0.8,0.8,0.8
513566.250000,5403037.500000,303.679993,0.8,0.8,0.8
513787.625000,5402878.000000,325.290009,0.8,0.8,0.8
513702.093750,5403120.000000,294.279999,0.8,0.8,0.8
513648.906250,5402982.000000,293.209991,0.8,0.8,0.8
513650.812500,5402701.500000,299.500000,0.8,0.8,0.8
513657.531250,5402766.000000,305.000000,0.8,0.8,0.8
513455.625000,5402767.500000,311.500000,0.8,0.8,0.8
513701.218750,5402927.500000,300.869995,0.8,0.8,0.8
513633.250000,5403275.000000,288.709991,0.8,0.8,0.8
513510.375000,5402763.500000,292.970001,0.8,0.8,0.8
513773.781250,5403170.500000,305.970001,0.8,0.8,0.8
513831.000000,5403174.000000,301.540009,0.8,0.8,0.8
513646.406250,5403031.500000,292.730011,0.8,0.8,0.8
513675.187500,5403150.000000,294.269989,0.8,0.8,0.8
513722.406250,5403235.500000,293.809998,0.8,0.8,0.8
513771.593750,5402849.500000,308.700012,0.8,0.8,0.8
513658.093750,5402752.000000,300.329987,0.8,0.8,0.8
513779.250000,5403230.500000,308.989990,0.8,0.8,0.8
513576.125000,5403224.000000,304.089996,0.8,0.8,0.8
513634.875000,5402764.500000,302.070007,0.8,0.8,0.8
513496.437500,5402674.500000,288.670013,0.8,0.8,0.8
513546.531250,5402716.000000,297.130005,0.8,0.8,0.8
513512.562500,5402903.500000,292.940002,0.8,0.8,0.8
513713.531250,5402663.500000,308.970001,0.8,0.8,0.8
513784.968750,5403252.500000,293.589996,0.8,0.8,0.8
513732.156250,5402900.500000,321.079987,0.8,0.8,0.8
513525.187500,5403035.000000,291.679993,0.8,0.8,0.8
513742.437500,5402887.500000,306.209991,0.8,0.8,0.8
513564.593750,5403131.000000,290.649994,0.8,0.8,0.8
513711.125000,5403078.500000,310.519989,0.8,0.8,0.8
513664.843750,5403148.000000,294.929993,0.8,0.8,0.8
513851.968750,5403131.500000,306.649994,0.8,0.8,0.8
513567.000000,5402850.000000,292.750000,0.8,0.8,0.8
513499.500000,5403015.500000,306.589996,0.8,0.8,0.8
513586.375000,5403153.000000,290.359985,0.8,0.8,0.8
513481.625000,5403252.500000,289.480011,0.8,0.8,0.8
513519.000000,5403055.000000,291.140015,0.8,0.8,0.8
513703.937500,5403180.500000,293.730011,0.8,0.8,0.8
513588.906250,5403021.000000,311.519989,0.8,0.8,0.8
513501.562500,5403260.500000,289.339996,0.8,0.8,0.8
513803.875000,5402735.000000,323.899994,0.8,0.8,0.8
513773.687500,5402760.500000,315.739990,0.8,0.8,0.8
513824.125000,5403064.000000,316.320007,0.8,0.8,0.8
513849.000000,5403030.500000,314.660004,0.8,0.8,0.8
513654.687500,5402885.500000,287.000000,0.8,0.8,0.8
513768.187500,5403224.000000,307.609985,0.8,0.8,0.8
513466.375000,5402673.000000,294.420013,0.8,0.8,0.8
513866.000000,5402739.000000,321.570007,0.8,0.8,0.8
513532.187500,5403020.000000,309.369995,0.8,0.8,0.8
513801.687500,5403143.000000,294.750000,0.8,0.8,0.8
513804.062500,5402786.000000,312.769989,0.8,0.8,0.8
513821.531250,5402997.000000,308.209991,0.8,0.8,0.8
513862.875000,5402986.000000,314.859985,0.8,0.8,0.8
513476.437500,5403102.500000,290.130005,0.8,0.8,0.8
513630.125000,5402702.500000,313.549988,0.8,0.8,0.8
513632.062500,5402919.000000,293.290009,0.8,0.8,0.8
513839.343750,5403129.500000,306.260010,0.8,0.8,0.8
513573.375000,5402684.000000,308.480011,0.8,0.8,0.8
513789.656250,5402877.000000,325.109985,0.8,0.8,0.8
513505.125000,5402734.000000,293.040009,0.8,0.8,0.8
513784.843750,5402810.500000,318.179993,0.8,0.8,0.8
513636.875000,5403240.500000,302.049988,0.8,0.8,0.8
513833.562500,5403011.000000,308.179993,0.8,0.8,0.8
513456.375000,5402978.500000,291.140015,0.8,0.8,0.8
513831.250000,5403155.000000,312.679993,0.8,0.8,0.8
513660.562500,5402692.000000,325.399994,0.8,0.8,0.8
513745.750000,5403073.000000,309.700012,0.8,0.8,0.8
513798.718750,5402921.500000,327.700012,0.8,0.8,0.8
513736.687500,5402669.500000,310.950012,0.8,0.8,0.8
513482.062500,5402767.500000,307.670013,0.8,0.8,0.8
513835.718750,5403012.500000,308.230011,0.8,0.8,0.8
513718.000000,5403108.500000,293.890015,0.8,0.8,0.8
513766.312500,5403249.000000,293.209991,0.8,0.8,0.8
513538.500000,5402990.000000,315.019989,0.8,0.8,0.8
513756.812500,5403060.500000,312.760010,0.8,0.8,0.8
513655.968750,5403114.500000,294.010010,0.8,0.8,0.8
513814.812500,5403001.500000,308.609985,0.8,0.8,0.8
513681.750000,5402963.500000,302.720001,0.8,0.8,0.8
513473.343750,5403130.000000,289.720001,0.8,0.8,0.8
513852.343750,5403220.000000,305.600006,0.8,0.8,0.8
513577.843750,5403071.000000,301.279999,0.8,0.8,0.8
513561.187500,5402654.000000,305.450012,0.8,0.8,0.8
513657.187500,5402650.500000,301.540009,0.8,0.8,0.8
513560.625000,5402887.000000,290.869995,0.8,0.8,0.8
513462.187500,5402795.000000,292.869995,0.8,0.8,0.8
513778.281250,5403096.000000,295.119995,0.8,0.8,0.8
513520.375000,5402974.500000,313.260010,0.8,0.8,0.8
513515.781250,5403238.500000,318.000000,0.8,0.8,0.8
513537.906250,5403126.000000,303.980011,0.8,0.8,0.8
513754.250000,5402821.000000,305.609985,0.8,0.8,0.8
513705.187500,5402706.000000,302.160004,0.8,0.8,0.8
513635.625000,5403027.500000,293.410004,0.8,0.8,0.8
513551.437500,5403084.000000,307.570007,0.8,0.8,0.8
513630.781250,5402911.500000,293.250000,0.8,0.8,0.8
513631.156250,5402700.000000,310.940002,0.8,0.8,0.8
513846.218750,5402872.000000,326.420013,0.8,0.8,0.8
513519.531250,5403236.000000,309.880005,0.8,0.8,0.8
513516.718750,5403113.000000,290.579987,0.8,0.8,0.8
513637.843750,5403076.500000,296.149994,0.8,0.8,0.8
513853.625000,5403018.000000,314.510010,0.8,0.8,0.8
513473.656250,5402851.500000,306.440002,0.8,0.8,0.8
513709.062500,5403263.500000,293.589996,0.8,0.8,0.8
513545.718750,5402835.500000,297.809998,0.8,0.8,0.8
513729.625000,5403156.500000,293.920013,0.8,0.8,0.8
513575.593750,5403176.000000,300.679993,0.8,0.8,0.8
513766.156250,5402800.500000,313.660004,0.8,0.8,0.8
513669.875000,5402978.000000,297.070007,0.8,0.8,0.8
513660.000000,5402846.000000,294.750000,0.8,0.8,0.8
513507.312500,5403031.500000,302.429993,0.8,0.8,0.8
513866.343750,5402966.000000,326.670013,0.8,0.8,0.8
513841.812500,5402854.000000,332.320007,0.8,0.8,0.8
513758.781250,5402900.000000,321.540009,0.8,0.8,0.8
513773.625000,5402866.000000,327.940002,0.8,0.8,0.8
513777.937500,5403161.500000,298.410004,0.8,0.8,0.8
513482.562500,5403116.000000,289.970001,0.8,0.8,0.8
513535.062500,5402844.500000,304.420013,0.8,0.8,0.8
513602.968750,5403193.500000,300.440002,0.8,0.8,0.8
513706.093750,5402885.500000,320.260010,0.8,0.8,0.8
513602.625000,5403257.500000,302.890015,0.8,0.8,0.8
513741.375000,5402878.500000,303.010010,0.8,0.8,0.8
513777.875000,5402764.000000,313.000000,0.8,0.8,0.8
513504.250000,5402688.500000,289.019989,0.8,0.8,0.8
513525.406250,5402783.000000,292.549988,0.8,0.8,0.8
513609.593750,5403196.500000,299.739990,0.8,0.8,0.8
513473.687500,5403227.500000,304.700012,0.8,0.8,0.8
513467.250000,5403238.500000,289.309998,0.8,0.8,0.8
513483.968750,5402734.500000,298.390015,0.8,0.8,0.8
513727.500000,5403107.500000,294.339996,0.8,0.8,0.8
513814.375000,5403253.500000,294.399994,0.8,0.8,0.8
513713.468750,5403193.500000,293.850006,0.8,0.8,0.8
513544.625000,5402651.000000,308.170013,0.8,0.8,0.8
513466.750000,5402774.000000,307.799988,0.8,0.8,0.8
513842.125000,5403278.500000,297.339996,0.8,0.8,0.8
513473.156250,5402731.000000,302.070007,0.8,0.8,0.8
513724.312500,5402948.000000,312.000000,0.8,0.8,0.8
513553.156250,5403239.000000,311.829987,0.8,0.8,0.8
513671.531250,5403047.000000,292.010010,0.8,0.8,0.8
513768.156250,5403123.000000,293.829987,0.8,0.8,0.8
513624.687500,5402684.000000,310.720001,0.8,0.8,0.8
513505.468750,5403147.500000,302.510010,0.8,0.8,0.8
513463.406250,5403139.000000,289.540009,0.8,0.8,0.8
513620.062500,5402989.500000,293.179993,0.8,0.8,0.8
513539.750000,5402895.000000,292.850006,0.8,0.8,0.8
513724.687500,5403176.500000,293.940002,0.8,0.8,0.8
513455.687500,5403193.500000,289.230011,0.8,0.8,0.8
513862.187500,5403214.500000,319.640015,0.8,0.8,0.8
513527.500000,5403088.500000,290.790009,0.8,0.8,0.8
513864.625000,5402977.000000,317.140015,0.8,0.8,0.8
513634.562500,5402826.500000,298.399994,0.8,0.8,0.8
513528.281250,5402763.000000,292.019989,0.8,0.8,0.8
513533.343750,5402977.500000,317.480011,0.8,0.8,0.8
513527.562500,5403037.500000,294.920013,0.8,0.8,0.8
513771.562500,5403166.000000,295.540009,0.8,0.8,0.8
513833.125000,5402823.500000,329.970001,0.8,0.8,0.8
513549.187500,5402721.000000,296.829987,0.8,0.8,0.8
513868.437500,5402692.000000,330.910004,0.8,0.8,0.8
513845.968750,5403249.000000,313.489990,0.8,0.8,0.8
513575.687500,5402855.500000,311.739990,0.8,0.8,0.8
513560.781250,5403260.000000,309.589996,0.8,0.8,0.8
513794.531250,5402880.000000,325.839996,0.8,0.8,0.8
513548.875000,5402737.500000,300.399994,0.8,0.8,0.8
513518.343750,5403037.500000,309.480011,0.8,0.8,0.8
513555.812500,5403270.500000,289.489990,0.8,0.8,0.8
513475.312500,5402780.000000,292.630005,0.8,0.8,0.8
513585.593750,5402828.500000,300.279999,0.8,0.8,0.8
513671.625000,5402883.000000,285.369995,0.8,0.8,0.8
513624.125000,5402692.500000,313.489990,0.8,0.8,0.8
513569.906250,5402893.000000,300.269989,0.8,0.8,0.8
513772.312500,5402827.000000,317.700012,0.8,0.8,0.8
513451.468750,5403133.500000,289.619995,0.8,0.8,0.8
513667.250000,5403224.000000,299.950012,0.8,0.8,0.8
513777.968750,5402793.500000,319.940002,0.8,0.8,0.8
513722.406250,5402952.500000,312.920013,0.8,0.8,0.8
513572.437500,5403097.000000,319.359985,0.8,0.8,0.8
513701.812500,5402715.000000,302.200012,0.8,0.8,0.8
513466.625000,5403075.000000,290.929993,0.8,0.8,0.8
513693.343750,5403130.500000,295.130005,0.8,0.8,0.8
513803.406250,5403271.000000,297.170013,0.8,0.8,0.8
513693.812500,5403201.500000,293.450012,0.8,0.8,0.8
513531.156250,5402748.000000,293.209991,0.8,0.8,0.8
513763.812500,5403077.500000,300.500000,0.8,0.8,0.8
513517.781250,5402661.000000,300.359985,0.8,0.8,0.8
513660.750000,5402998.500000,299.679993,0.8,0.8,0.8
513612.437500,5403269.000000,289.019989,0.8,0.8,0.8
513775.156250,5403222.000000,307.989990,0.8,0.8,0.8
513847.156250,5402841.000000,321.209991,0.8,0.8,0.8
513653.531250,5402890.000000,288.799988,0.8,0.8,0.8
513654.875000,5402750.000000,308.809998,0.8,0.8,0.8
513645.281250,5403004.500000,293.339996,0.8,0.8,0.8
513801.468750,5403229.500000,298.769989,0.8,0.8,0.8
513602.156250,5402755.000000,297.500000,0.8,0.8,0.8
513784.625000,5402982.000000,309.390015,0.8,0.8,0.8
513862.218750,5403149.000000,306.910004,0.8,0.8,0.8
513540.812500,5403146.500000,299.540009,0.8,0.8,0.8
513463.000000,5402749.500000,304.429993,0.8,0.8,0.8
513559.531250,5402942.000000,314.709991,0.8,0.8,0.8
513824.312500,5402910.500000,327.059998,0.8,0.8,0.8
513861.343750,5402792.000000,318.250000,0.8,0.8,0.8
513496.250000,5403253.500000,289.470001,0.8,0.8,0.8
513502.250000,5402659.000000,294.720001,0.8,0.8,0.8
513473.875000,5403230.500000,304.429993,0.8,0.8,0.8
513700.437500,5402965.500000,312.980011,0.8,0.8,0.8
513829.062500,5403236.500000,315.179993,0.8,0.8,0.8
513763.343750,5403013.500000,312.140015,0.8,0.8,0.8
513665.875000,5403115.000000,293.850006,0.8,0.8,0.8
513452.312500,5402976.500000,296.739990,0.8,0.8,0.8
513562.843750,5403079.000000,307.799988,0.8,0.8,0.8
513628.843750,5403191.500000,291.239990,0.8,0.8,0.8
513540.093750,5403227.000000,289.190002,0.8,0.8,0.8
513581.625000,5402981.500000,313.920013,0.8,0.8,0.8
513630.125000,5402663.500000,303.450012,0.8,0.8,0.8
513470.906250,5403254.000000,294.339996,0.8,0.8,0.8
513824.093750,5403059.500000,318.660004,0.8,0.8,0.8
513783.062500,5402919.500000,310.089996,0.8,0.8,0.8
513651.750000,5403163.500000,303.260010,0.8,0.8,0.8
513848.125000,5402746.500000,336.869995,0.8,0.8,0.8
513659.562500,5402754.500000,312.279999,0.8,0.8,0.8
513631.625000,5402780.500000,306.179993,0.8,0.8,0.8
513576.562500,5403154.500000,290.260010,0.8,0.8,0.8
513752.250000,5403007.500000,312.140015,0.8,0.8,0.8
513581.312500,5403111.000000,311.880005,0.8,0.8,0.8
513510.187500,5403048.500000,291.029999,0.8,0.8,0.8
513522.531250,5402731.000000,291.709991,0.8,0.8,0.8
513811.937500,5402771.500000,312.170013,0.8,0.8,0.8
513549.625000,5403185.000000,295.929993,0.8,0.8,0.8
513542.625000,5402737.500000,292.940002,0.8,0.8,0.8
513815.875000,5402834.500000,312.859985,0.8,0.8,0.8
513630.312500,5403161.500000,292.390015,0.8,0.8,0.8
513519.062500,5403221.000000,309.390015,0.8,0.8,0.8
513536.875000,5403063.000000,300.700012,0.8,0.8,0.8
513519.968750,5403104.000000,290.619995,0.8,0.8,0.8
513690.187500,5402991.500000,303.779999,0.8,0.8,0.8
513661.625000,5402843.000000,293.640015,0.8,0.8,0.8
513656.125000,5402759.000000,307.459991,0.8,0.8,0.8
513778.312500,5403103.000000,312.019989,0.8,0.8,0.8
513453.250000,5402755.000000,310.170013,0.8,0.8,0.8
513633.093750,5403017.500000,293.369995,0.8,0.8,0.8
513555.312500,5403147.500000,291.690002,0.8,0.8,0.8
513607.843750,5403179.000000,290.500000,0.8,0.8,0.8
513539.593750,5402847.500000,304.059998,0.8,0.8,0.8
513782.187500,5402731.000000,308.250000,0.8,0.8,0.8
513700.750000,5403015.500000,299.829987,0.8,0.8,0.8
513654.375000,5403193.500000,293.489990,0.8,0.8,0.8
513597.750000,5402702.500000,310.970001,0.8,0.8,0.8
513826.968750,5402666.000000,310.779999,0.8,0.8,0.8
513784.093750,5402968.500000,315.750000,0.8,0.8,0.8
513580.406250,5402938.000000,307.130005,0.8,0.8,0.8
513536.062500,5403231.000000,297.399994,0.8,0.8,0.8
513824.875000,5403145.500000,304.890015,0.8,0.8,0.8
513479.562500,5402738.500000,294.640015,0.8,0.8,0.8
513686.125000,5402688.000000,307.760010,0.8,0.8,0.8
513772.750000,5402673.500000,308.309998,0.8,0.8,0.8
513862.968750,5402752.000000,320.010010,0.8,0.8,0.8
513839.906250,5402864.500000,320.850006,0.8,0.8,0.8
513757.343750,5402688.500000,328.529999,0.8,0.8,0.8
513764.250000,5402782.000000,315.279999,0.8,0.8,0.8
513485.750000,5402978.000000,291.559998,0.8,0.8,0.8
513660.468750,5403143.500000,298.329987,0.8,0.8,0.8
513488.062500,5403241.000000,305.779999,0.8,0.8,0.8
513527.281250,5402949.500000,295.970001,0.8,0.8,0.8
513803.687500,5403207.000000,300.940002,0.8,0.8,0.8
513639.687500,5403082.000000,300.720001,0.8,0.8,0.8
513660.031250,5403160.500000,294.040009,0.8,0.8,0.8
513780.031250,5403173.500000,307.559998,0.8,0.8,0.8
513714.281250,5402864.000000,316.720001,0.8,0.8,0.8
513535.062500,5403027.500000,318.950012,0.8,0.8,0.8
513553.687500,5402835.500000,292.559998,0.8,0.8,0.8
513567.312500,5403234.000000,295.040009,0.8,0.8,0.8
513568.625000,5402887.000000,301.140015,0.8,0.8,0.8
513645.375000,5402958.500000,301.600006,0.8,0.8,0.8
513712.718750,5402729.000000,304.369995,0.8,0.8,0.8
513620.343750,5402664.500000,309.679993,0.8,0.8,0.8
513550.875000,5402912.000000,293.970001,0.8,0.8,0.8
513569.781250,5402876.000000,292.660004,0.8,0.8,0.8
513701.843750,5402970.000000,311.410004,0.8,0.8,0.8
513739.062500,5402816.500000,301.260010,0.8,0.8,0.8
513671.812500,5402850.000000,312.619995,0.8,0.8,0.8
513589.281250,5403170.500000,300.980011,0.8,0.8,0.8
513703.781250,5402839.000000,320.149994,0.8,0.8,0.8
513505.875000,5403162.000000,293.079987,0.8,0.8,0.8
513658.656250,5402733.000000,299.160004,0.8,0.8,0.8
513490.218750,5403080.000000,290.619995,0.8,0.8,0.8
513638.031250,5402762.500000,304.779999,0.8,0.8,0.8
513788.281250,5403178.500000,300.190002,0.8,0.8,0.8
513549.500000,5402669.500000,301.910004,0.8,0.8,0.8
513586.406250,5402872.500000,292.839996,0.8,0.8,0.8
513668.656250,5403030.500000,293.549988,0.8,0.8,0.8
513797.000000,5403112.000000,295.010010,0.8,0.8,0.8
513773.156250,5402951.000000,311.130005,0.8,0.8,0.8
513753.468750,5402959.000000,305.109985,0.8,0.8,0.8
513537.156250,5402944.000000,292.929993,0.8,0.8,0.8
513452.000000,5403266.500000,290.600006,0.8,0.8,0.8
513704.437500,5403248.500000,293.489990,0.8,0.8,0.8
513550.281250,5403276.000000,292.880005,0.8,0.8,0.8
513860.156250,5403117.000000,314.679993,0.8,0.8,0.8
513498.562500,5403093.000000,290.500000,0.8,0.8,0.8
513793.312500,5402755.500000,327.079987,0.8,0.8,0.8
513814.468750,5402670.000000,330.450012,0.8,0.8,0.8
513605.593750,5402968.000000,306.329987,0.8,0.8,0.8
513802.125000,5402839.500000,329.429993,0.8,0.8,0.8
513515.500000,5403030.000000,298.109985,0.8,0.8,0.8
513846.250000,5402842.000000,323.950012,0.8,0.8,0.8
513761.125000,5402763.500000,314.549988,0.8,0.8,0.8
513482.781250,5402741.000000,306.220001,0.8,0.8,0.8
513609.625000,5403168.000000,290.279999,0.8,0.8,0.8
513660.968750,5402968.000000,293.529999,0.8,0.8,0.8
513487.500000,5402797.500000,293.040009,0.8,0.8,0.8
513492.906250,5403271.500000,289.630005,0.8,0.8,0.8
513838.781250,5403145.000000,298.859985,0.8,0.8,0.8
513456.187500,5402952.000000,291.260010,0.8,0.8,0.8
513572.281250,5402913.500000,304.649994,0.8,0.8,0.8
513734.812500,5403123.500000,308.690002,0.8,0.8,0.8
513755.156250,5402692.500000,329.429993,0.8,0.8,0.8
513832.781250,5402849.000000,319.850006,0.8,0.8,0.8
513699.437500,5402834.000000,321.000000,0.8,0.8,0.8
513468.500000,5402670.500000,294.290009,0.8,0.8,0.8
513479.875000,5403252.500000,316.600006,0.8,0.8,0.8
513774.218750,5403193.500000,294.450012,0.8,0.8,0.8
513719.000000,5403082.000000,295.890015,0.8,0.8,0.8
513502.500000,5403262.000000,289.339996,0.8,0.8,0.8
513540.968750,5402901.000000,292.760010,0.8,0.8,0.8
513853.187500,5403031.000000,320.040009,0.8,0.8,0.8
513537.843750,5403068.000000,297.239990,0.8,0.8,0.8
513650.593750,5403208.000000,296.519989,0.8,0.8,0.8
513598.125000,5402842.000000,293.070007,0.8,0.8,0.8
513600.906250,5402983.000000,293.209991,0.8,0.8,0.8
513811.250000,5403056.000000,306.299988,0.8,0.8,0.8
513548.687500,5402868.000000,293.140015,0.8,0.8,0.8
513848.750000,5402680.000000,320.850006,0.8,0.8,0.8
513564.687500,5403203.000000,290.059998,0.8,0.8,0.8
513623.187500,5402823.000000,304.989990,0.8,0.8,0.8
513740.718750,5403037.500000,312.730011,0.8,0.8,0.8
513569.468750,5403144.500000,302.269989,0.8,0.8,0.8
513579.093750,5403160.500000,299.910004,0.8,0.8,0.8
513667.468750,5403003.000000,301.600006,0.8,0.8,0.8
513635.812500,5402766.000000,302.540009,0.8,0.8,0.8
513810.781250,5402713.000000,311.059998,0.8,0.8,0.8
513735.531250,5402890.500000,302.779999,0.8,0.8,0.8
513692.218750,5403232.500000,296.570007,0.8,0.8,0.8
513638.968750,5403055.000000,293.950012,0.8,0.8,0.8
513745.500000,5402828.000000,302.709991,0.8,0.8,0.8
513711.281250,5402899.500000,300.619995,0.8,0.8,0.8
513865.968750,5402742.000000,320.609985,0.8,0.8,0.8
513579.812500,5403268.000000,318.950012,0.8,0.8,0.8
513829.000000,5402734.000000,313.049988,0.8,0.8,0.8
513726.968750,5403279.500000,293.179993,0.8,0.8,0.8
513580.125000,5403219.000000,303.179993,0.8,0.8,0.8
513538.531250,5402669.000000,297.640015,0.8,0.8,0.8
513479.750000,5403255.500000,291.049988,0.8,0.8,0.8
513835.937500,5403071.000000,319.029999,0.8,0.8,0.8
513675.000000,5402941.000000,304.510010,0.8,0.8,0.8
513656.687500,5402783.000000,312.559998,0.8,0.8,0.8
513604.718750,5402725.500000,297.799988,0.8,0.8,0.8
513670.281250,5403255.500000,292.540009,0.8,0.8,0.8
513684.781250,5402856.500000,321.329987,0.8,0.8,0.8
513512.343750,5403070.500000,290.809998,0.8,0.8,0.8
513495.156250,5402830.500000,305.489990,0.8,0.8,0.8
513545.750000,5402840.500000,295.589996,0.8,0.8,0.8
513490.062500,5403054.000000,290.929993,0.8,0.8,0.8
513507.375000,5403234.000000,313.779999,0.8,0.8,0.8
513615.281250,5402723.500000,309.679993,0.8,0.8,0.8
513573.906250,5403230.000000,289.540009,0.8,0.8,0.8
513805.531250,5403252.000000,294.160004,0.8,0.8,0.8
513688.125000,5403071.000000,293.850006,0.8,0.8,0.8
513615.937500,5403263.000000,289.299988,0.8,0.8,0.8
513654.843750,5403106.500000,309.290009,0.8,0.8,0.8
513659.375000,5402820.000000,312.010010,0.8,0.8,0.8
513562.687500,5402993.000000,297.720001,0.8,0.8,0.8
513528.562500,5402798.500000,296.760010,0.8,0.8,0.8
513812.125000,5403134.000000,294.329987,0.8,0.8,0.8
513644.562500,5403113.500000,293.480011,0.8,0.8,0.8
513643.500000,5402807.500000,315.230011,0.8,0.8,0.8
513755.468750,5403127.000000,303.739990,0.8,0.8,0.8
513848.718750,5402735.000000,322.399994,0.8,0.8,0.8
513564.843750,5403261.500000,313.470001,0.8,0.8,0.8
513766.468750,5402976.000000,305.329987,0.8,0.8,0.8
513693.093750,5402671.500000,306.230011,0.8,0.8,0.8
513639.156250,5403036.000000,293.459991,0.8,0.8,0.8
513759.156250,5403010.000000,312.769989,0.8,0.8,0.8
513638.343750,5403137.000000,292.399994,0.8,0.8,0.8
513481.625000,5402670.000000,295.350006,0.8,0.8,0.8
513522.093750,5402907.500000,292.850006,0.8,0.8,0.8
513767.281250,5403198.500000,311.959991,0.8,0.8,0.8
513581.906250,5403174.000000,307.510010,0.8,0.8,0.8
513493.500000,5402764.000000,293.019989,0.8,0.8,0.8
513451.125000,5402716.500000,307.730011,0.8,0.8,0.8
513638.031250,5403122.500000,294.510010,0.8,0.8,0.8
513540.000000,5403180.500000,300.100006,0.8,0.8,0.8
513798.031250,5402972.500000,322.279999,0.8,0.8,0.8
513624.531250,5403110.500000,299.079987,0.8,0.8,0.8
513671.593750,5402756.000000,298.880005,0.8,0.8,0.8
513623.437500,5402663.000000,307.279999,0.8,0.8,0.8
513686.375000,5403049.000000,293.660004,0.8,0.8,0.8
513464.562500,5402774.000000,307.850006,0.8,0.8,0.8
513805.000000,5402888.000000,325.839996,0.8,0.8,0.8
513698.312500,5402965.500000,313.220001,0.8,0.8,0.8
513694.125000,5402910.000000,299.019989,0.8,0.8,0.8
513857.843750,5402669.500000,330.420013,0.8,0.8,0.8
513693.500000,5403136.500000,297.100006,0.8,0.8,0.8
513691.906250,5402957.500000,305.750000,0.8,0.8,0.8
513649.375000,5402715.000000,310.179993,0.8,0.8,0.8
513483.593750,5402676.000000,294.350006,0.8,0.8,0.8
513545.281250,5402904.000000,292.709991,0.8,0.8,0.8
513601.343750,5402842.500000,302.630005,0.8,0.8,0.8
513759.500000,5403068.000000,296.000000,0.8,0.8,0.8
513663.562500,5402831.000000,297.179993,0.8,0.8,0.8
513589.781250,5402908.000000,309.850006,0.8,0.8,0.8
513714.906250,5402713.000000,315.859985,0.8,0.8,0.8
513457.750000,5403045.500000,290.799988,0.8,0.8,0.8
513494.625000,5402661.500000,287.549988,0.8,0.8,0.8
513618.781250,5403221.000000,291.459991,0.8,0.8,0.8
513769.562500,5402696.500000,332.529999,0.8,0.8,0.8
513655.281250,5403135.000000,298.359985,0.8,0.8,0.8
513805.437500,5402679.500000,311.250000,0.8,0.8,0.8
513775.562500,5402882.000000,324.609985,0.8,0.8,0.8
513626.375000,5402900.000000,295.739990,0.8,0.8,0.8
513462.250000,5402943.000000,292.329987,0.8,0.8,0.8
513557.812500,5402658.500000,305.609985,0.8,0.8,0.8
513630.968750,5403187.000000,291.549988,0.8,0.8,0.8
513768.156250,5403264.500000,293.190002,0.8,0.8,0.8
513863.031250,5402748.000000,318.880005,0.8,0.8,0.8
513576.281250,5402886.000000,292.640015,0.8,0.8,0.8
513538.468750,5403263.000000,289.290009,0.8,0.8,0.8
513696.937500,5402901.500000,299.279999,0.8,0.8,0.8
513676.812500,5402731.500000,323.679993,0.8,0.8,0.8
513465.750000,5403172.500000,303.529999,0.8,0.8,0.8
513838.093750,5402723.000000,328.980011,0.8,0.8,0.8
513694.250000,5403069.500000,293.519989,0.8,0.8,0.8
513841.343750,5403098.000000,315.140015,0.8,0.8,0.8
513767.625000,5402807.500000,321.970001,0.8,0.8,0.8
513772.406250,5403183.000000,306.029999,0.8,0.8,0.8
513750.843750,5402870.000000,321.799988,0.8,0.8,0.8
513539.156250,5402953.500000,306.950012,0.8,0.8,0.8
513470.968750,5402771.500000,295.269989,0.8,0.8,0.8
513661.781250,5402887.000000,289.899994,0.8,0.8,0.8
513779.968750,5403052.500000,315.380005,0.8,0.8,0.8
513631.218750,5403220.500000,291.160004,0.8,0.8,0.8
513817.718750,5403155.000000,295.760010,0.8,0.8,0.8
513834.187500,5403087.500000,318.450012,0.8,0.8,0.8
513455.875000,5403225.000000,301.459991,0.8,0.8,0.8
513659.812500,5403280.000000,299.869995,0.8,0.8,0.8
513787.093750,5402667.000000,309.510010,0.8,0.8,0.8
513520.062500,5402817.000000,292.869995,0.8,0.8,0.8
513498.093750,5403244.500000,300.459991,0.8,0.8,0.8
513671.375000,5402876.500000,287.649994,0.8,0.8,0.8
513554.781250,5402902.500000,292.720001,0.8,0.8,0.8
513516.812500,5403020.000000,291.609985,0.8,0.8,0.8
513841.406250,5403116.000000,306.410004,0.8,0.8,0.8
513619.625000,5403142.500000,294.519989,0.8,0.8,0.8
513477.687500,5402699.500000,296.290009,0.8,0.8,0.8
513520.062500,5402815.000000,292.899994,0.8,0.8,0.8
513734.812500,5403238.500000,287.739990,0.8,0.8,0.8
513821.906250,5402797.500000,315.989990,0.8,0.8,0.8
513720.875000,5403232.500000,293.660004,0.8,0.8,0.8
513477.781250,5402832.000000,301.700012,0.8,0.8,0.8
513554.593750,5402864.000000,302.920013,0.8,0.8,0.8
513866.093750,5403031.500000,316.850006,0.8,0.8,0.8
513559.343750,5402861.500000,305.779999,0.8,0.8,0.8
513842.406250,5403069.500000,319.579987,0.8,0.8,0.8
513842.375000,5402876.500000,320.880005,0.8,0.8,0.8
513724.500000,5402651.500000,322.820007,0.8,0.8,0.8
513547.625000,5402984.500000,315.609985,0.8,0.8,0.8
513595.000000,5403101.000000,311.440002,0.8,0.8,0.8
513733.062500,5402664.500000,311.880005,0.8,0.8,0.8
513677.312500,5402681.500000,316.799988,0.8,0.8,0.8
513717.468750,5403110.500000,293.799988,0.8,0.8,0.8
513598.968750,5402859.000000,297.450012,0.8,0.8,0.8
513564.968750,5403035.500000,303.640015,0.8,0.8,0.8
513510.218750,5402958.500000,291.790009,0.8,0.8,0.8
513460.156250,5402895.500000,293.100006,0.8,0.8,0.8
513577.250000,5402701.000000,307.480011,0.8,0.8,0.8
513847.562500,5403068.500000,319.760010,0.8,0.8,0.8
513545.843750,5403276.500000,307.220001,0.8,0.8,0.8
513757.500000,5403154.000000,293.940002,0.8,0.8,0.8
513843.437500,5403095.000000,312.869995,0.8,0.8,0.8
513464.437500,5402785.500000,298.500000,0.8,0.8,0.8
513718.000000,5402965.000000,311.880005,0.8,0.8,0.8
513769.218750,5403206.000000,310.950012,0.8,0.8,0.8
513667.406250,5402980.000000,297.059998,0.8,0.8,0.8
513824.468750,5403028.000000,314.010010,0.8,0.8,0.8
513838.843750,5402862.000000,332.980011,0.8,0.8,0.8
513450.625000,5403148.500000,289.450012,0.8,0.8,0.8
513530.312500,5403256.500000,289.839996,0.8,0.8,0.8
513720.468750,5402667.500000,307.959991,0.8,0.8,0.8
513535.125000,5402843.000000,301.339996,0.8,0.8,0.8
513655.968750,5403102.500000,306.049988,0.8,0.8,0.8
513676.000000,5402702.000000,303.269989,0.8,0.8,0.8
513561.218750,5402988.500000,312.260010,0.8,0.8,0.8
513711.812500,5402964.500000,311.420013,0.8,0.8,0.8
513723.968750,5402939.500000,310.059998,0.8,0.8,0.8
513569.062500,5402842.000000,292.880005,0.8,0.8,0.8
513665.468750,5403219.500000,292.320007,0.8,0.8,0.8
513677.531250,5402870.000000,285.609985,0.8,0.8,0.8
513748.156250,5402884.000000,315.950012,0.8,0.8,0.8
513824.531250,5403031.000000,314.549988,0.8,0.8,0.8
513619.375000,5402657.000000,300.160004,0.8,0.8,0.8
513531.031250,5402844.000000,302.549988,0.8,0.8,0.8
513576.593750,5403277.500000,317.440002,0.8,0.8,0.8
513696.000000,5402720.500000,300.709991,0.8,0.8,0.8
513797.531250,5403167.500000,299.359985,0.8,0.8,0.8
513617.156250,5403016.500000,297.809998,0.8,0.8,0.8
513696.593750,5403015.500000,296.899994,0.8,0.8,0.8
513808.187500,5403140.000000,307.279999,0.8,0.8,0.8
513508.343750,5403130.000000,290.350006,0.8,0.8,0.8
513500.406250,5402789.000000,304.290009,0.8,0.8,0.8
513471.562500,5403258.000000,291.339996,0.8,0.8,0.8
513675.718750,5402918.000000,296.390015,0.8,0.8,0.8
513492.375000,5402985.500000,308.380005,0.8,0.8,0.8
513861.937500,5402841.500000,321.000000,0.8,0.8,0.8
513700.593750,5402951.500000,306.820007,0.8,0.8,0.8
513477.375000,5402911.500000,293.079987,0.8,0.8,0.8
513741.937500,5402821.500000,303.070007,0.8,0.8,0.8
513576.156250,5402935.500000,307.570007,0.8,0.8,0.8
513626.937500,5402670.000000,309.829987,0.8,0.8,0.8
513719.125000,5403078.000000,308.950012,0.8,0.8,0.8
513451.031250,5403117.000000,311.720001,0.8,0.8,0.8
513786.750000,5403218.000000,294.279999,0.8,0.8,0.8
513854.156250,5403124.500000,313.350006,0.8,0.8,0.8
513468.156250,5402689.000000,297.470001,0.8,0.8,0.8
513750.812500,5402919.500000,303.809998,0.8,0.8,0.8
513513.843750,5402710.000000,292.320007,0.8,0.8,0.8
513595.593750,5403245.000000,289.880005,0.8,0.8,0.8
513641.500000,5403039.500000,293.529999,0.8,0.8,0.8
513509.343750,5403059.000000,313.700012,0.8,0.8,0.8
513505.343750,5402840.500000,293.109985,0.8,0.8,0.8
513805.875000,5403159.000000,299.010010,0.8,0.8,0.8
513730.812500,5402826.500000,308.019989,0.8,0.8,0.8
513734.781250,5403024.500000,302.760010,0.8,0.8,0.8
513787.625000,5403216.000000,294.359985,0.8,0.8,0.8
513864.312500,5403153.000000,306.829987,0.8,0.8,0.8
513801.968750,5402760.000000,312.440002,0.8,0.8,0.8
513808.531250,5402973.000000,310.519989,0.8,0.8,0.8
513767.437500,5403157.000000,293.679993,0.8,0.8,0.8
513567.062500,5403210.500000,291.230011,0.8,0.8,0.8
513722.906250,5403142.500000,294.079987,0.8,0.8,0.8
513586.625000,5403078.500000,306.739990,0.8,0.8,0.8
513817.531250,5402774.500000,312.279999,0.8,0.8,0.8
513771.843750,5402951.500000,306.720001,0.8,0.8,0.8
513611.000000,5403258.000000,290.250000,0.8,0.8,0.8
513541.218750,5402912.000000,292.579987,0.8,0.8,0.8
513839.343750,5403261.500000,311.200012,0.8,0.8,0.8
513733.968750,5403132.000000,310.929993,0.8,0.8,0.8
513731.343750,5402832.000000,320.989990,0.8,0.8,0.8
513667.812500,5402849.000000,305.459991,0.8,0.8,0.8
513731.437500,5402774.000000,301.380005,0.8,0.8,0.8
513656.406250,5402694.500000,323.559998,0.8,0.8,0.8
513543.468750,5402841.500000,301.399994,0.8,0.8,0.8
513684.625000,5402835.000000,328.029999,0.8,0.8,0.8
513677.187500,5402999.000000,296.920013,0.8,0.8,0.8
513698.687500,5402741.000000,300.660004,0.8,0.8,0.8
513795.375000,5403060.000000,295.459991,0.8,0.8,0.8
513614.781250,5403131.000000,292.220001,0.8,0.8,0.8
513603.343750,5402811.500000,312.410004,0.8,0.8,0.8
513769.187500,5402710.000000,307.500000,0.8,0.8,0.8
513671.781250,5402968.500000,297.079987,0.8,0.8,0.8
513783.312500,5402863.000000,322.549988,0.8,0.8,0.8
513834.625000,5403086.000000,310.739990,0.8,0.8,0.8
513482.062500,5402875.000000,306.380005,0.8,0.8,0.8
513848.656250,5402760.000000,331.160004,0.8,0.8,0.8
513764.968750,5402995.500000,318.019989,0.8,0.8,0.8
513603.937500,5402947.000000,292.940002,0.8,0.8,0.8
513834.125000,5403193.000000,306.230011,0.8,0.8,0.8
513732.875000,5402985.000000,306.309998,0.8,0.8,0.8
513528.031250,5403035.000000,320.119995,0.8,0.8,0.8
513514.218750,5403021.000000,305.519989,0.8,0.8,0.8
513782.375000,5402928.500000,313.239990,0.8,0.8,0.8
513515.656250,5402659.000000,299.640015,0.8,0.8,0.8
513533.625000,5403032.000000,291.779999,0.8,0.8,0.8
513624.250000,5402840.000000,315.480011,0.8,0.8,0.8
513512.968750,5403143.500000,294.429993,0.8,0.8,0.8
513555.031250,5403276.500000,313.450012,0.8,0.8,0.8
513662.000000,5403254.000000,292.029999,0.8,0.8,0.8
513564.250000,5402910.500000,293.660004,0.8,0.8,0.8
513621.406250,5403192.000000,291.170013,0.8,0.8,0.8
513765.562500,5402785.000000,324.119995,0.8,0.8,0.8
513816.500000,5403152.500000,307.899994,0.8,0.8,0.8
513793.656250,5402674.500000,309.649994,0.8,0.8,0.8
513453.750000,5402751.500000,292.190002,0.8,0.8,0.8
513568.593750,5403024.000000,292.339996,0.8,0.8,0.8
513773.343750,5403188.500000,296.619995,0.8,0.8,0.8
513618.281250,5402936.500000,293.029999,0.8,0.8,0.8
513682.375000,5402925.000000,297.010010,0.8,0.8,0.8
513636.062500,5403037.000000,293.380005,0.8,0.8,0.8
513694.343750,5403237.500000,293.920013,0.8,0.8,0.8
513539.875000,5403133.000000,304.190002,0.8,0.8,0.8
513633.750000,5402910.000000,293.339996,0.8,0.8,0.8
513836.500000,5403072.500000,307.179993,0.8,0.8,0.8
513542.125000,5403222.000000,289.239990,0.8,0.8,0.8
513717.562500,5402686.500000,311.940002,0.8,0.8,0.8
513664.093750,5402682.000000,323.690002,0.8,0.8,0.8
513549.906250,5402758.000000,292.820007,0.8,0.8,0.8
513776.593750,5402963.000000,322.220001,0.8,0.8,0.8
513478.500000,5403219.500000,303.019989,0.8,0.8,0.8
513860.781250,5402749.000000,315.220001,0.8,0.8,0.8
513543.000000,5402899.500000,294.660004,0.8,0.8,0.8
513640.250000,5403107.000000,303.880005,0.8,0.8,0.8
513749.187500,5403205.000000,293.619995,0.8,0.8,0.8
513682.750000,5402754.000000,299.190002,0.8,0.8,0.8
513728.218750,5403207.000000,293.820007,0.8,0.8,0.8
513698.718750,5402954.000000,301.769989,0.8,0.8,0.8
513686.406250,5403022.000000,293.910004,0.8,0.8,0.8
513581.875000,5402657.500000,300.170013,0.8,0.8,0.8
513585.312500,5402969.000000,313.589996,0.8,0.8,0.8
513568.875000,5402688.000000,299.649994,0.8,0.8,0.8
513843.437500,5403087.000000,317.660004,0.8,0.8,0.8
513476.406250,5403199.000000,297.119995,0.8,0.8,0.8
513767.875000,5402852.000000,316.929993,0.8,0.8,0.8
513642.062500,5403075.500000,297.369995,0.8,0.8,0.8
513567.093750,5403142.500000,292.309998,0.8,0.8,0.8
513612.218750,5402814.000000,315.230011,0.8,0.8,0.8
513541.500000,5403116.000000,304.059998,0.8,0.8,0.8
513497.500000,5402741.500000,293.320007,0.8,0.8,0.8
513485.906250,5403239.500000,304.160004,0.8,0.8,0.8
513777.875000,5402948.500000,305.540009,0.8,0.8,0.8
513698.625000,5403250.000000,308.579987,0.8,0.8,0.8
513489.281250,5403124.000000,289.829987,0.8,0.8,0.8
513809.593750,5403023.500000,306.619995,0.8,0.8,0.8
513479.000000,5403080.500000,290.769989,0.8,0.8,0.8
513645.625000,5403269.000000,289.570007,0.8,0.8,0.8
513562.500000,5403029.500000,306.329987,0.8,0.8,0.8
513764.906250,5402712.500000,307.950012,0.8,0.8,0.8
513642.906250,5402912.500000,294.019989,0.8,0.8,0.8
513740.781250,5402960.500000,321.470001,0.8,0.8,0.8
513825.250000,5402790.000000,320.380005,0.8,0.8,0.8
513554.781250,5402721.500000,296.720001,0.8,0.8,0.8
513698.562500,5402763.000000,321.390015,0.8,0.8,0.8
513866.250000,5403027.000000,329.279999,0.8,0.8,0.8
513614.656250,5402766.500000,296.829987,0.8,0.8,0.8
513786.781250,5402739.500000,326.100006,0.8,0.8,0.8
513715.687500,5402978.000000,302.880005,0.8,0.8,0.8
513509.218750,5402679.000000,288.510010,0.8,0.8,0.8
513834.375000,5403193.000000,318.029999,0.8,0.8,0.8
513486.468750,5402849.500000,306.730011,0.8,0.8,0.8
513530.437500,5402871.000000,293.369995,0.8,0.8,0.8
513817.156250,5402652.000000,310.750000,0.8,0.8,0.8
513516.687500,5403186.500000,293.470001,0.8,0.8,0.8
513642.937500,5403231.500000,300.690002,0.8,0.8,0.8
513456.625000,5402784.500000,292.540009,0.8,0.8,0.8
513828.781250,5402792.500000,321.480011,0.8,0.8,0.8
513475.531250,5403091.500000,298.890015,0.8,0.8,0.8
513703.875000,5403122.000000,294.140015,0.8,0.8,0.8
513568.312500,5402783.500000,302.059998,0.8,0.8,0.8
513702.718750,5402913.500000,299.619995,0.8,0.8,0.8
513720.343750,5402926.500000,302.619995,0.8,0.8,0.8
513732.250000,5402888.000000,302.670013,0.8,0.8,0.8
513559.187500,5402854.000000,303.320007,0.8,0.8,0.8
513567.593750,5402702.500000,296.489990,0.8,0.8,0.8
513824.406250,5402690.000000,327.200012,0.8,0.8,0.8
513593.437500,5402683.000000,316.049988,0.8,0.8,0.8
513570.781250,5403272.500000,314.769989,0.8,0.8,0.8
513790.625000,5403270.000000,288.869995,0.8,0.8,0.8
513495.875000,5403255.500000,289.589996,0.8,0.8,0.8
513611.437500,5403005.500000,295.739990,0.8,0.8,0.8
513798.500000,5403061.000000,298.600006,0.8,0.8,0.8
513741.250000,5402657.500000,323.369995,0.8,0.8,0.8
513528.687500,5402836.500000,292.980011,0.8,0.8,0.8
513533.312500,5403004.500000,307.040009,0.8,0.8,0.8
513513.625000,5402697.000000,289.500000,0.8,0.8,0.8
513479.812500,5402932.500000,304.540009,0.8,0.8,0.8
513808.937500,5402816.500000,314.070007,0.8,0.8,0.8
513859.593750,5402678.500000,339.309998,0.8,0.8,0.8
513525.906250,5403236.500000,314.649994,0.8,0.8,0.8
513633.093750,5403169.500000,314.510010,0.8,0.8,0.8
513453.156250,5402720.000000,292.429993,0.8,0.8,0.8
513573.281250,5402838.500000,292.779999,0.8,0.8,0.8
513458.468750,5403235.500000,291.690002,0.8,0.8,0.8
513492.562500,5402821.000000,293.209991,0.8,0.8,0.8
513773.562500,5402865.000000,309.679993,0.8,0.8,0.8
513595.218750,5403228.000000,296.670013,0.8,0.8,0.8
513528.343750,5402871.000000,293.279999,0.8,0.8,0.8
513795.531250,5402731.500000,319.149994,0.8,0.8,0.8
513568.187500,5403053.500000,307.410004,0.8,0.8,0.8
513471.843750,5403004.000000,290.839996,0.8,0.8,0.8
513577.593750,5403220.000000,310.760010,0.8,0.8,0.8
513706.843750,5403247.500000,293.489990,0.8,0.8,0.8
513471.593750,5402940.500000,307.480011,0.8,0.8,0.8
513795.375000,5403187.000000,300.839996,0.8,0.8,0.8
513593.437500,5402704.000000,312.869995,0.8,0.8,0.8
513839.906250,5403060.500000,314.829987,0.8,0.8,0.8
513594.968750,5402887.000000,292.809998,0.8,0.8,0.8
513561.968750,5402738.000000,296.769989,0.8,0.8,0.8
513731.093750,5402898.000000,321.119995,0.8,0.8,0.8
513497.093750,5402942.000000,292.450012,0.8,0.8,0.8
513749.156250,5402960.500000,315.660004,0.8,0.8,0.8
513486.125000,5402788.000000,292.929993,0.8,0.8,0.8
513477.250000,5403120.500000,289.890015,0.8,0.8,0.8
513843.687500,5402880.500000,324.730011,0.8,0.8,0.8
513791.281250,5402720.000000,326.829987,0.8,0.8,0.8
513748.093750,5402826.000000,303.959991,0.8,0.8,0.8
513749.125000,5403123.500000,311.820007,0.8,0.8,0.8
513515.281250,5403273.500000,290.470001,0.8,0.8,0.8
513617.968750,5402698.500000,313.480011,0.8,0.8,0.8
513725.187500,5402958.000000,312.070007,0.8,0.8,0.8
513616.906250,5403278.000000,288.700012,0.8,0.8,0.8
513834.625000,5402691.000000,326.869995,0.8,0.8,0.8
513529.937500,5402672.000000,297.609985,0.8,0.8,0.8
513663.906250,5403130.500000,306.890015,0.8,0.8,0.8
513774.781250,5402760.500000,311.459991,0.8,0.8,0.8
513629.531250,5403130.000000,294.660004,0.8,0.8,0.8
513782.718750,5403202.000000,301.769989,0.8,0.8,0.8
513456.843750,5403230.000000,303.510010,0.8,0.8,0.8
513793.500000,5403161.000000,305.420013,0.8,0.8,0.8
513824.500000,5403130.000000,295.600006,0.8,0.8,0.8
513866.031250,5402958.500000,320.640015,0.8,0.8,0.8
513828.218750,5403161.500000,301.709991,0.8,0.8,0.8
513797.718750,5403208.500000,317.399994,0.8,0.8,0.8
513852.906250,5403075.000000,309.619995,0.8,0.8,0.8
513664.781250,5403217.000000,292.140015,0.8,0.8,0.8
513504.406250,5402658.000000,294.540009,0.8,0.8,0.8
513845.406250,5403023.500000,308.790009,0.8,0.8,0.8
513733.312500,5403111.000000,294.290009,0.8,0.8,0.8
513513.750000,5402938.000000,291.989990,0.8,0.8,0.8
513779.968750,5402786.500000,312.730011,0.8,0.8,0.8
513651.125000,5403043.500000,292.299988,0.8,0.8,0.8
513539.968750,5403256.500000,296.059998,0.8,0.8,0.8
513753.593750,5403280.000000,290.290009,0.8,0.8,0.8
513784.312500,5403031.000000,298.380005,0.8,0.8,0.8
513477.875000,5402853.500000,306.660004,0.8,0.8,0.8
513656.593750,5402774.000000,317.920013,0.8,0.8,0.8
513490.281250,5403150.500000,289.500000,0.8,0.8,0.8
513490.000000,5402827.500000,293.329987,0.8,0.8,0.8
513490.437500,5402821.500000,293.209991,0.8,0.8,0.8
513762.250000,5402756.500000,312.480011,0.8,0.8,0.8
513703.656250,5402858.000000,320.239990,0.8,0.8,0.8
513750.968750,5402796.500000,306.239990,0.8,0.8,0.8
513492.281250,5402962.000000,291.600006,0.8,0.8,0.8
513707.937500,5402973.500000,302.709991,0.8,0.8,0.8
513809.906250,5402900.000000,313.140015,0.8,0.8,0.8
513539.375000,5402884.000000,292.970001,0.8,0.8,0.8
513823.093750,5402702.000000,314.869995,0.8,0.8,0.8
513665.218750,5403201.500000,300.160004,0.8,0.8,0.8
513828.437500,5403071.500000,321.140015,0.8,0.8,0.8
513852.375000,5403232.500000,315.980011,0.8,0.8,0.8
513624.250000,5403104.500000,301.579987,0.8,0.8,0.8
513686.968750,5402879.000000,284.799988,0.8,0.8,0.8
513547.750000,5403278.000000,308.790009,0.8,0.8,0.8
513757.343750,5402935.500000,304.290009,0.8,0.8,0.8
513755.843750,5403091.000000,312.920013,0.8,0.8,0.8
513789.093750,5403189.000000,300.140015,0.8,0.8,0.8
513803.062500,5403188.500000,316.450012,0.8,0.8,0.8
513591.656250,5402814.000000,295.329987,0.8,0.8,0.8
513600.281250,5402840.500000,302.640015,0.8,0.8,0.8
513533.968750,5403038.500000,291.739990,0.8,0.8,0.8
513480.562500,5402945.500000,292.209991,0.8,0.8,0.8
513648.125000,5403126.000000,284.130005,0.8,0.8,0.8
513534.437500,5403235.000000,317.489990,0.8,0.8,0.8
513519.062500,5403271.500000,289.429993,0.8,0.8,0.8
513656.093750,5403115.500000,298.209991,0.8,0.8,0.8
513566.281250,5403203.500000,305.970001,0.8,0.8,0.8
513828.187500,5403017.000000,307.929993,0.8,0.8,0.8
513753.781250,5402782.000000,306.510010,0.8,0.8,0.8
513732.375000,5402686.500000,310.690002,0.8,0.8,0.8
513772.875000,5403109.500000,314.059998,0.8,0.8,0.8
513740.156250,5402907.500000,304.040009,0.8,0.8,0.8
513504.218750,5403052.500000,290.980011,0.8,0.8,0.8
513703.343750,5402975.500000,302.859985,0.8,0.8,0.8
513464.593750,5403224.000000,308.119995,0.8,0.8,0.8
513599.937500,5402885.500000,292.630005,0.8,0.8,0.8
513674.718750,5403106.000000,288.769989,0.8,0.8,0.8
513519.625000,5403253.500000,289.059998,0.8,0.8,0.8
513714.093750,5402842.500000,301.070007,0.8,0.8,0.8
513453.125000,5402783.000000,292.329987,0.8,0.8,0.8
513651.781250,5402950.500000,305.779999,0.8,0.8,0.8
513644.687500,5402704.000000,299.540009,0.8,0.8,0.8
513749.031250,5403166.000000,293.839996,0.8,0.8,0.8
513691.968750,5403059.500000,300.119995,0.8,0.8,0.8
513737.750000,5402753.500000,316.779999,0.8,0.8,0.8
513660.500000,5402781.500000,316.630005,0.8,0.8,0.8
513824.281250,5403107.500000,296.929993,0.8,0.8,0.8
513814.812500,5402987.500000,308.700012,0.8,0.8,0.8
513718.500000,5402957.000000,312.970001,0.8,0.8,0.8
513835.343750,5402915.000000,312.920013,0.8,0.8,0.8
513510.125000,5403066.000000,296.640015,0.8,0.8,0.8
513594.375000,5403202.500000,291.140015,0.8,0.8,0.8
513536.125000,5403191.000000,300.760010,0.8,0.8,0.8
513768.312500,5403194.500000,310.170013,0.8,0.8,0.8
513555.875000,5403177.000000,306.809998,0.8,0.8,0.8
513787.312500,5403118.500000,302.829987,0.8,0.8,0.8
513593.562500,5402966.000000,312.980011,0.8,0.8,0.8
513722.875000,5403277.000000,293.250000,0.8,0.8,0.8
513708.093750,5402885.000000,346.670013,0.8,0.8,0.8
513709.687500,5402802.500000,320.279999,0.8,0.8,0.8
513854.968750,5402854.000000,337.589996,0.8,0.8,0.8
513685.687500,5402918.000000,314.450012,0.8,0.8,0.8
513853.156250,5402904.000000,338.079987,0.8,0.8,0.8
513511.562500,5402810.000000,293.329987,0.8,0.8,0.8
513492.468750,5402753.500000,293.399994,0.8,0.8,0.8
513632.593750,5402840.500000,315.149994,0.8,0.8,0.8
513699.562500,5403019.000000,297.410004,0.8,0.8,0.8
513775.093750,5403034.000000,295.059998,0.8,0.8,0.8
513755.937500,5402799.000000,313.179993,0.8,0.8,0.8
513702.093750,5403145.000000,293.989990,0.8,0.8,0.8
513594.312500,5402827.500000,301.980011,0.8,0.8,0.8
513807.656250,5403033.000000,306.339996,0.8,0.8,0.8
513790.406250,5403017.500000,307.109985,0.8,0.8,0.8
513456.906250,5403174.500000,300.559998,0.8,0.8,0.8
513453.750000,5403124.500000,305.459991,0.8,0.8,0.8
513838.125000,5402698.000000,320.920013,0.8,0.8,0.8
513659.218750,5402744.000000,311.000000,0.8,0.8,0.8
513782.562500,5402962.500000,309.019989,0.8,0.8,0.8
513768.125000,5402820.000000,317.540009,0.8,0.8,0.8
513531.906250,5402662.500000,305.359985,0.8,0.8,0.8
513839.375000,5402870.000000,322.149994,0.8,0.8,0.8
513698.656250,5402841.500000,323.100006,0.8,0.8,0.8
513626.531250,5402657.500000,307.170013,0.8,0.8,0.8
513599.406250,5403036.000000,313.380005,0.8,0.8,0.8
513800.906250,5403011.500000,310.480011,0.8,0.8,0.8
513568.968750,5402891.500000,293.589996,0.8,0.8,0.8
513450.875000,5402947.500000,304.929993,0.8,0.8,0.8
513587.375000,5403186.500000,290.600006,0.8,0.8,0.8
513836.562500,5402834.000000,321.350006,0.8,0.8,0.8
513657.093750,5402704.500000,300.910004,0.8,0.8,0.8
513465.531250,5403233.000000,299.230011,0.8,0.8,0.8
513461.125000,5402762.000000,313.339996,0.8,0.8,0.8
513483.375000,5402974.500000,312.910004,0.8,0.8,0.8
513609.406250,5403007.500000,297.700012,0.8,0.8,0.8
513461.343750,5402768.000000,317.750000,0.8,0.8,0.8
513846.250000,5403210.000000,301.500000,0.8,0.8,0.8
513736.843750,5402785.500000,306.320007,0.8,0.8,0.8
513801.812500,5402876.000000,327.309998,0.8,0.8,0.8
513863.968750,5403234.000000,307.299988,0.8,0.8,0.8
513621.593750,5403276.500000,305.190002,0.8,0.8,0.8
513553.437500,5402785.500000,292.579987,0.8,0.8,0.8
513621.968750,5403253.500000,302.510010,0.8,0.8,0.8
513542.625000,5403279.500000,291.720001,0.8,0.8,0.8
513626.281250,5402678.500000,310.739990,0.8,0.8,0.8
513734.750000,5402949.000000,304.700012,0.8,0.8,0.8
513848.781250,5402706.500000,324.200012,0.8,0.8,0.8
513548.437500,5403149.000000,290.269989,0.8,0.8,0.8
513830.781250,5403131.000000,307.850006,0.8,0.8,0.8
513817.343750,5403194.000000,301.190002,0.8,0.8,0.8
513467.656250,5403190.500000,289.190002,0.8,0.8,0.8
513700.593750,5402812.000000,300.179993,0.8,0.8,0.8
513575.437500,5402828.500000,292.630005,0.8,0.8,0.8
513732.812500,5402724.000000,307.790009,0.8,0.8,0.8
513594.750000,5403052.000000,311.299988,0.8,0.8,0.8
513745.750000,5402714.500000,309.279999,0.8,0.8,0.8
513553.093750,5402915.000000,292.529999,0.8,0.8,0.8
513753.718750,5402751.500000,303.869995,0.8,0.8,0.8
513650.875000,5402718.000000,309.730011,0.8,0.8,0.8
513699.812500,5403183.500000,293.640015,0.8,0.8,0.8
513860.031250,5403172.500000,306.359985,0.8,0.8,0.8
513708.250000,5403029.500000,301.989990,0.8,0.8,0.8
513552.062500,5403085.500000,305.920013,0.8,0.8,0.8
513640.750000,5402684.000000,311.440002,0.8,0.8,0.8
513545.937500,5403206.500000,290.410004,0.8,0.8,0.8
513643.437500,5402855.000000,292.739990,0.8,0.8,0.8
513774.718750,5402654.000000,313.049988,0.8,0.8,0.8
513639.906250,5402970.500000,293.089996,0.8,0.8,0.8
513518.718750,5403064.000000,310.579987,0.8,0.8,0.8
513473.562500,5402868.000000,306.690002,0.8,0.8,0.8
513565.062500,5402717.000000,297.010010,0.8,0.8,0.8
513797.562500,5403176.500000,303.660004,0.8,0.8,0.8
513611.031250,5403253.500000,293.250000,0.8,0.8,0.8
513678.343750,5403273.000000,292.309998,0.8,0.8,0.8
513507.312500,5403015.500000,291.369995,0.8,0.8,0.8
513547.156250,5403117.500000,307.290009,0.8,0.8,0.8
513693.437500,5402982.000000,299.209991,0.8,0.8,0.8
513678.562500,5402767.000000,299.000000,0.8,0.8,0.8
513594.468750,5402841.500000,292.910004,0.8,0.8,0.8
513820.968750,5402901.000000,325.880005,0.8,0.8,0.8
513701.500000,5403066.500000,293.399994,0.8,0.8,0.8
513646.937500,5403124.000000,289.130005,0.8,0.8,0.8
513835.312500,5402882.000000,323.609985,0.8,0.8,0.8
513685.937500,5403130.000000,287.339996,0.8,0.8,0.8
513575.156250,5402888.000000,292.929993,0.8,0.8,0.8
513585.375000,5402943.000000,305.829987,0.8,0.8,0.8
513704.687500,5402992.500000,303.459991,0.8,0.8,0.8
513597.906250,5403201.500000,294.149994,0.8,0.8,0.8
513653.406250,5403270.500000,294.940002,0.8,0.8,0.8
513484.000000,5402760.500000,296.910004,0.8,0.8,0.8
513800.843750,5403175.500000,300.390015,0.8,0.8,0.8
513557.656250,5403246.500000,292.489990,0.8,0.8,0.8
513522.718750,5403013.000000,291.760010,0.8,0.8,0.8
513572.218750,5403202.000000,289.750000,0.8,0.8,0.8
513511.750000,5402710.000000,291.500000,0.8,0.8,0.8
513499.750000,5403247.000000,298.989990,0.8,0.8,0.8
513600.312500,5402942.000000,292.859985,0.8,0.8,0.8
513642.875000,5402947.500000,304.040009,0.8,0.8,0.8
513570.468750,5402788.000000,298.920013,0.8,0.8,0.8
513545.093750,5403057.500000,295.029999,0.8,0.8,0.8
513557.593750,5402947.500000,316.220001,0.8,0.8,0.8
513719.250000,5402695.500000,325.540009,0.8,0.8,0.8
513665.781250,5402993.500000,300.049988,0.8,0.8,0.8
513579.906250,5402651.500000,299.959991,0.8,0.8,0.8
513689.812500,5402871.000000,290.899994,0.8,0.8,0.8
513544.062500,5402896.500000,292.839996,0.8,0.8,0.8
513477.375000,5403128.000000,289.750000,0.8,0.8,0.8
513797.750000,5402991.500000,306.720001,0.8,0.8,0.8
513494.656250,5402817.000000,293.130005,0.8,0.8,0.8
513546.937500,5402862.500000,301.390015,0.8,0.8,0.8
513593.531250,5403201.000000,294.589996,0.8,0.8,0.8
513539.062500,5403190.500000,290.839996,0.8,0.8,0.8
513868.750000,5403248.000000,323.320007,0.8,0.8,0.8
513823.000000,5403244.500000,299.029999,0.8,0.8,0.8
513683.093750,5402929.000000,305.130005,0.8,0.8,0.8
513663.062500,5403003.000000,293.369995,0.8,0.8,0.8
513865.656250,5402832.000000,328.239990,0.8,0.8,0.8
513597.250000,5403125.000000,302.950012,0.8,0.8,0.8
513547.906250,5402761.500000,292.910004,0.8,0.8,0.8
513807.781250,5403273.500000,294.380005,0.8,0.8,0.8
513555.718750,5402666.000000,301.790009,0.8,0.8,0.8
513727.468750,5403093.000000,294.619995,0.8,0.8,0.8
513847.281250,5403064.500000,309.350006,0.8,0.8,0.8
513454.093750,5403224.000000,289.089996,0.8,0.8,0.8
513716.968750,5403098.500000,293.989990,0.8,0.8,0.8
513537.468750,5403070.500000,306.420013,0.8,0.8,0.8
513595.750000,5402722.000000,297.309998,0.8,0.8,0.8
513759.968750,5402993.500000,305.859985,0.8,0.8,0.8
513478.531250,5402933.500000,302.380005,0.8,0.8,0.8
513526.093750,5403214.000000,291.559998,0.8,0.8,0.8
513450.625000,5403120.000000,289.820007,0.8,0.8,0.8
513761.031250,5402906.500000,322.160004,0.8,0.8,0.8
513629.156250,5402794.000000,315.149994,0.8,0.8,0.8
