x,y,z,r,g,b
513694,5.40322e+006,293.43,0.8,0.8,0.8
513647,5.40327e+006,297.53,0.8,0.8,0.8
513568,5.40308e+006,307.79,0.8,0.8,0.8
513546,5.40322e+006,309.26,0.8,0.8,0.8
513727,5.40325e+006,294.6,0.8,0.8,0.8
513778,5.40325e+006,293.35,0.8,0.8,0.8
513516,5.40315e+006,305.22,0.8,0.8,0.8
513581,5.40297e+006,314.8,0.8,0.8,0.8
513771,5.40279e+006,323.01,0.8,0.8,0.8
513850,5.40309e+006,310.31,0.8,0.8,0.8
513700,5.40271e+006,315.32,0.8,0.8,0.8
513566,5.40319e+006,304.78,0.8,0.8,0.8
513853,5.40282e+006,334.14,0.8,0.8,0.8
513685,5.40297e+006,311.53,0.8,0.8,0.8
513687,5.40273e+006,323.6,0.8,0.8,0.8
513537,5.40309e+006,304.33,0.8,0.8,0.8
513863,5.40305e+006,317.16,0.8,0.8,0.8
513706,5.4029e+006,300.06,0.8,0.8,0.8
513838,5.40288e+006,322.4,0.8,0.8,0.8
513711,5.40319e+006,293.82,0.8,0.8,0.8
513717,5.40269e+006,311.87,0.8,0.8,0.8
513520,5.40273e+006,291.22,0.8,0.8,0.8
513616,5.40292e+006,292.74,0.8,0.8,0.8
513632,5.40272e+006,313.47,0.8,0.8,0.8
513664,5.40311e+006,296.57,0.8,0.8,0.8
513482,5.40325e+006,310.93,0.8,0.8,0.8
513790,5.40273e+006,315.68,0.8,0.8,0.8
513636,5.40297e+006,293.24,0.8,0.8,0.8
513688,5.40294e+006,311.75,0.8,0.8,0.8
513529,5.40285e+006,298.9,0.8,0.8,0.8
513696,5.40317e+006,293.61,0.8,0.8,0.8
513810,5.40326e+006,294.39,0.8,0.8,0.8
513650,5.40284e+006,292.74,0.8,0.8,0.8
513498,5.40312e+006,290.3,0.8,0.8,0.8
513797,5.40312e+006,297.77,0.8,0.8,0.8
513732,5.40313e+006,310.94,0.8,0.8,0.8
513634,5.40273e+006,313.62,0.8,0.8,0.8
513720,5.40313e+006,298.18,0.8,0.8,0.8
513812,5.40284e+006,313.05,0.8,0.8,0.8
513605,5.40274e+006,296.86,0.8,0.8,0.8
513574,5.40281e+006,292.59,0.8,0.8,0.8
513546,5.4032e+006,311.06,0.8,0.8,0.8
513865,5.40308e+006,311.52,0.8,0.8,0.8
513840,5.40328e+006,295.94,0.8,0.8,0.8
513813,5.40286e+006,313.13,0.8,0.8,0.8
513552,5.40303e+006,306.69,0.8,0.8,0.8
513453,5.40293e+006,292.43,0.8,0.8,0.8
513488,5.40319e+006,289.22,0.8,0.8,0.8
513530,5.40323e+006,311.87,0.8,0.8,0.8
513526,5.40296e+006,306.46,0.8,0.8,0.8
513477,5.40283e+006,293.36,0.8,0.8,0.8
513506,5.40304e+006,301.05,0.8,0.8,0.8
513502,5.40324e+006,298.17,0.8,0.8,0.8
513639,5.40289e+006,286.7,0.8,0.8,0.8
513530,5.40304e+006,317.55,0.8,0.8,0.8
513835,5.40276e+006,314.95,0.8,0.8,0.8
513642,5.40275e+006,296.92,0.8,0.8,0.8
513574,5.40319e+006,290.56,0.8,0.8,0.8
513559,5.4031e+006,308.27,0.8,0.8,0.8
513640,5.40292e+006,293.29,0.8,0.8,0.8
513762,5.40296e+006,306.26,0.8,0.8,0.8
513839,5.40268e+006,315.18,0.8,0.8,0.8
513474,5.40324e+006,303.44,0.8,0.8,0.8
513607,5.40308e+006,311.18,0.8,0.8,0.8
513654,5.40296e+006,308.2,0.8,0.8,0.8
513817,5.40322e+006,317.96,0.8,0.8,0.8
513683,5.40302e+006,293.52,0.8,0.8,0.8
513661,5.40266e+006,308.11,0.8,0.8,0.8
513866,5.40274e+006,328.79,0.8,0.8,0.8
513748,5.40273e+006,305.21,0.8,0.8,0.8
513699,5.40269e+006,302.15,0.8,0.8,0.8
513727,5.4029e+006,321.82,0.8,0.8,0.8
513496,5.40295e+006,291.59,0.8,0.8,0.8
513596,5.40319e+006,290.37,0.8,0.8,0.8
513482,5.40328e+006,289.96,0.8,0.8,0.8
513533,5.40278e+006,293.56,0.8,0.8,0.8
513779,5.40304e+006,295.12,0.8,0.8,0.8
513465,5.40287e+006,306.17,0.8,0.8,0.8
513535,5.40304e+006,308.21,0.8,0.8,0.8
513541,5.40307e+006,310.55,0.8,0.8,0.8
513610,5.40311e+006,291.8,0.8,0.8,0.8
513471,5.40286e+006,306.68,0.8,0.8,0.8
513731,5.40299e+006,297.65,0.8,0.8,0.8
513643,5.40268e+006,299.93,0.8,0.8,0.8
513523,5.40279e+006,292.98,0.8,0.8,0.8
513785,5.40327e+006,293.24,0.8,0.8,0.8
513697,5.40304e+006,296.55,0.8,0.8,0.8
513738,5.4032e+006,293.68,0.8,0.8,0.8
513857,5.4028e+006,318.92,0.8,0.8,0.8
513605,5.40279e+006,302.39,0.8,0.8,0.8
513659,5.40309e+006,293.8,0.8,0.8,0.8
513569,5.40284e+006,293.15,0.8,0.8,0.8
513649,5.40324e+006,301.45,0.8,0.8,0.8
513645,5.40295e+006,306.83,0.8,0.8,0.8
513696,5.40271e+006,302.22,0.8,0.8,0.8
513748,5.40274e+006,320.44,0.8,0.8,0.8
513572,5.40279e+006,297.48,0.8,0.8,0.8
513735,5.40321e+006,293.71,0.8,0.8,0.8
513669,5.40275e+006,298.89,0.8,0.8,0.8
513790,5.40319e+006,300.36,0.8,0.8,0.8
513663,5.40297e+006,312.13,0.8,0.8,0.8
513768,5.40327e+006,293.02,0.8,0.8,0.8
513661,5.40269e+006,323.91,0.8,0.8,0.8
513560,5.40292e+006,292.37,0.8,0.8,0.8
513843,5.40281e+006,332.74,0.8,0.8,0.8
513645,5.40304e+006,293.68,0.8,0.8,0.8
513738,5.40317e+006,293.93,0.8,0.8,0.8
513666,5.40322e+006,302.92,0.8,0.8,0.8
513839,5.40314e+006,296.5,0.8,0.8,0.8
513731,5.40296e+006,312.58,0.8,0.8,0.8
513690,5.40324e+006,297.93,0.8,0.8,0.8
513578,5.40322e+006,308.22,0.8,0.8,0.8
513839,5.40291e+006,319.37,0.8,0.8,0.8
513780,5.4027e+006,315.46,0.8,0.8,0.8
513796,5.40269e+006,309.98,0.8,0.8,0.8
513534,5.4027e+006,294.56,0.8,0.8,0.8
513834,5.40308e+006,312.05,0.8,0.8,0.8
513773,5.40272e+006,308.25,0.8,0.8,0.8
513540,5.40316e+006,294.17,0.8,0.8,0.8
513713,5.40307e+006,310.33,0.8,0.8,0.8
513616,5.4027e+006,313.59,0.8,0.8,0.8
513524,5.4028e+006,300.81,0.8,0.8,0.8
513669,5.40266e+006,335.7,0.8,0.8,0.8
513634,5.40296e+006,295.89,0.8,0.8,0.8
513770,5.40288e+006,319.88,0.8,0.8,0.8
513501,5.40269e+006,289.41,0.8,0.8,0.8
513807,5.40281e+006,313.6,0.8,0.8,0.8
513546,5.40316e+006,293.93,0.8,0.8,0.8
513618,5.40291e+006,292.63,0.8,0.8,0.8
513736,5.40291e+006,321.38,0.8,0.8,0.8
513716,5.40274e+006,302.03,0.8,0.8,0.8
513541,5.40268e+006,297.87,0.8,0.8,0.8
513540,5.40271e+006,294.26,0.8,0.8,0.8
513492,5.40317e+006,289.31,0.8,0.8,0.8
513539,5.40284e+006,301.04,0.8,0.8,0.8
513759,5.40317e+006,294.39,0.8,0.8,0.8
513682,5.40298e+006,303.29,0.8,0.8,0.8
513696,5.40283e+006,321.81,0.8,0.8,0.8
513551,5.40286e+006,293.09,0.8,0.8,0.8
513672,5.40298e+006,297.09,0.8,0.8,0.8
513598,5.40302e+006,311.49,0.8,0.8,0.8
513835,5.40296e+006,309.58,0.8,0.8,0.8
513542,5.40315e+006,300.76,0.8,0.8,0.8
513739,5.40312e+006,309.54,0.8,0.8,0.8
513515,5.40291e+006,292.87,0.8,0.8,0.8
513658,5.40275e+006,301.45,0.8,0.8,0.8
513480,5.40318e+006,289.24,0.8,0.8,0.8
513608,5.40283e+006,297.36,0.8,0.8,0.8
513822,5.40272e+006,312.2,0.8,0.8,0.8
513859,5.40275e+006,317.37,0.8,0.8,0.8
513659,5.40327e+006,294.66,0.8,0.8,0.8
513601,5.40265e+006,307.62,0.8,0.8,0.8
513800,5.40325e+006,301.64,0.8,0.8,0.8
513708,5.40307e+006,311.03,0.8,0.8,0.8
513750,5.40309e+006,313.2,0.8,0.8,0.8
513631,5.40291e+006,293.25,0.8,0.8,0.8
513610,5.40313e+006,310.1,0.8,0.8,0.8
513451,5.4029e+006,292.96,0.8,0.8,0.8
513656,5.40315e+006,298.58,0.8,0.8,0.8
513604,5.40312e+006,291.59,0.8,0.8,0.8
513779,5.40321e+006,301.84,0.8,0.8,0.8
513668,5.40313e+006,300.21,0.8,0.8,0.8
513477,5.40286e+006,307.16,0.8,0.8,0.8
513748,5.40278e+006,308.67,0.8,0.8,0.8
513678,5.403e+006,296.92,0.8,0.8,0.8
513792,5.40292e+006,321.95,0.8,0.8,0.8
513791,5.40312e+006,296.04,0.8,0.8,0.8
513760,5.4029e+006,321.16,0.8,0.8,0.8
513593,5.40269e+006,315.57,0.8,0.8,0.8
513535,5.40302e+006,317.13,0.8,0.8,0.8
513590,5.40302e+006,311.57,0.8,0.8,0.8
513633,5.40276e+006,307.41,0.8,0.8,0.8
513684,5.40312e+006,288,0.8,0.8,0.8
513866,5.40285e+006,336.6,0.8,0.8,0.8
513628,5.40276e+006,296.88,0.8,0.8,0.8
513844,5.40285e+006,331.32,0.8,0.8,0.8
513835,5.40286e+006,324.48,0.8,0.8,0.8
513571,5.40323e+006,289.5,0.8,0.8,0.8
513456,5.40288e+006,305.49,0.8,0.8,0.8
513770,5.40298e+006,305.67,0.8,0.8,0.8
513705,5.40268e+006,311.83,0.8,0.8,0.8
513805,5.40323e+006,311.83,0.8,0.8,0.8
513493,5.40312e+006,290.03,0.8,0.8,0.8
513512,5.40287e+006,305.73,0.8,0.8,0.8
513869,5.40312e+006,324.9,0.8,0.8,0.8
513861,5.40302e+006,310.76,0.8,0.8,0.8
513668,5.40284e+006,298.54,0.8,0.8,0.8
513705,5.40292e+006,300.8,0.8,0.8,0.8
513638,5.40327e+006,289.2,0.8,0.8,0.8
513824,5.40327e+006,307.17,0.8,0.8,0.8
513472,5.40291e+006,293.05,0.8,0.8,0.8
513848,5.40288e+006,323.63,0.8,0.8,0.8
513567,5.40293e+006,292.3,0.8,0.8,0.8
513500,5.40325e+006,307.66,0.8,0.8,0.8
513462,5.40294e+006,292.32,0.8,0.8,0.8
513700,5.40274e+006,302.88,0.8,0.8,0.8
513545,5.40269e+006,297.5,0.8,0.8,0.8
513586,5.40284e+006,292.47,0.8,0.8,0.8
513790,5.40286e+006,313.04,0.8,0.8,0.8
513563,5.40327e+006,309.99,0.8,0.8,0.8
513469,5.40284e+006,301.74,0.8,0.8,0.8
513869,5.40313e+006,325.5,0.8,0.8,0.8
513637,5.40316e+006,311.68,0.8,0.8,0.8
513833,5.40314e+006,296.13,0.8,0.8,0.8
513742,5.40324e+006,288.17,0.8,0.8,0.8
513614,5.40318e+006,310.82,0.8,0.8,0.8
513834,5.40287e+006,327.77,0.8,0.8,0.8
513745,5.40295e+006,323.52,0.8,0.8,0.8
513530,5.4027e+006,293.33,0.8,0.8,0.8
513512,5.40302e+006,307.75,0.8,0.8,0.8
513854,5.40315e+006,306.37,0.8,0.8,0.8
513785,5.40315e+006,308.43,0.8,0.8,0.8
513644,5.40327e+006,289.45,0.8,0.8,0.8
513680,5.40325e+006,294.26,0.8,0.8,0.8
513705,5.40318e+006,293.72,0.8,0.8,0.8
513701,5.40325e+006,309.92,0.8,0.8,0.8
513771,5.40322e+006,293.92,0.8,0.8,0.8
513657,5.40271e+006,299.66,0.8,0.8,0.8
513781,5.40278e+006,314.1,0.8,0.8,0.8
513598,5.40294e+006,292.95,0.8,0.8,0.8
513528,5.40308e+006,294.47,0.8,0.8,0.8
513504,5.40311e+006,290.33,0.8,0.8,0.8
513678,5.40317e+006,293.32,0.8,0.8,0.8
513651,5.40323e+006,292.22,0.8,0.8,0.8
513613,5.40314e+006,312.5,0.8,0.8,0.8
513466,5.40322e+006,301.61,0.8,0.8,0.8
513638,5.40278e+006,297.06,0.8,0.8,0.8
513544,5.40312e+006,304.04,0.8,0.8,0.8
513652,5.40297e+006,301.57,0.8,0.8,0.8
513472,5.40274e+006,292.24,0.8,0.8,0.8
513840,5.40307e+006,321.41,0.8,0.8,0.8
513555,5.40323e+006,314.03,0.8,0.8,0.8
513532,5.4032e+006,292.6,0.8,0.8,0.8
513552,5.40312e+006,304.11,0.8,0.8,0.8
513566,5.4031e+006,315.85,0.8,0.8,0.8
513694,5.40323e+006,293.49,0.8,0.8,0.8
513577,5.40306e+006,297.65,0.8,0.8,0.8
513613,5.40274e+006,309.73,0.8,0.8,0.8
513740,5.40299e+006,305.95,0.8,0.8,0.8
513499,5.4029e+006,292.83,0.8,0.8,0.8
513736,5.40278e+006,301.5,0.8,0.8,0.8
513500,5.40312e+006,290.39,0.8,0.8,0.8
513709,5.40282e+006,300.62,0.8,0.8,0.8
513722,5.40304e+006,312.79,0.8,0.8,0.8
513469,5.40279e+006,292.74,0.8,0.8,0.8
513840,5.40274e+006,326.01,0.8,0.8,0.8
513535,5.40322e+006,299.66,0.8,0.8,0.8
513547,5.40323e+006,301.69,0.8,0.8,0.8
513573,5.40318e+006,290.12,0.8,0.8,0.8
513640,5.40312e+006,294.98,0.8,0.8,0.8
513631,5.40291e+006,294.13,0.8,0.8,0.8
513820,5.40327e+006,307.71,0.8,0.8,0.8
513755,5.40295e+006,305.65,0.8,0.8,0.8
513469,5.40285e+006,305.99,0.8,0.8,0.8
513837,5.40309e+006,321.39,0.8,0.8,0.8
513716,5.40319e+006,293.89,0.8,0.8,0.8
513629,5.40265e+006,299.99,0.8,0.8,0.8
513837,5.40266e+006,319.26,0.8,0.8,0.8
513640,5.40308e+006,302.6,0.8,0.8,0.8
513495,5.40291e+006,292.84,0.8,0.8,0.8
513607,5.4032e+006,298.39,0.8,0.8,0.8
513589,5.40298e+006,298.39,0.8,0.8,0.8
513543,5.40281e+006,292.6,0.8,0.8,0.8
513504,5.40293e+006,292.35,0.8,0.8,0.8
513744,5.40298e+006,313.23,0.8,0.8,0.8
513810,5.40327e+006,296.31,0.8,0.8,0.8
513842,5.4027e+006,316.36,0.8,0.8,0.8
513856,5.40305e+006,311.29,0.8,0.8,0.8
513594,5.40286e+006,292.46,0.8,0.8,0.8
513679,5.40322e+006,299.36,0.8,0.8,0.8
513499,5.40298e+006,291.54,0.8,0.8,0.8
513703,5.40316e+006,293.81,0.8,0.8,0.8
513825,5.40312e+006,303.64,0.8,0.8,0.8
513804,5.40273e+006,311.23,0.8,0.8,0.8
513680,5.40309e+006,289.46,0.8,0.8,0.8
513593,5.40314e+006,290.34,0.8,0.8,0.8
513691,5.40293e+006,311.81,0.8,0.8,0.8
513566,5.40316e+006,291.21,0.8,0.8,0.8
513596,5.40271e+006,302.14,0.8,0.8,0.8
513786,5.40285e+006,326.87,0.8,0.8,0.8
513628,5.4031e+006,298.59,0.8,0.8,0.8
513649,5.40319e+006,291.93,0.8,0.8,0.8
513712,5.40311e+006,294.02,0.8,0.8,0.8
513862,5.4029e+006,323.31,0.8,0.8,0.8
513520,5.40283e+006,292.95,0.8,0.8,0.8
513642,5.4029e+006,287.15,0.8,0.8,0.8
513539,5.40306e+006,309.29,0.8,0.8,0.8
513495,5.40323e+006,289.53,0.8,0.8,0.8
513792,5.40274e+006,311.75,0.8,0.8,0.8
513526,5.40298e+006,314.49,0.8,0.8,0.8
513690,5.40304e+006,293.58,0.8,0.8,0.8
513816,5.40289e+006,313.31,0.8,0.8,0.8
513710,5.40269e+006,311.99,0.8,0.8,0.8
513673,5.40295e+006,311.81,0.8,0.8,0.8
513607,5.40287e+006,292.96,0.8,0.8,0.8
513584,5.4032e+006,295.86,0.8,0.8,0.8
513795,5.40271e+006,310.44,0.8,0.8,0.8
513546,5.40275e+006,292.89,0.8,0.8,0.8
513650,5.40266e+006,301.47,0.8,0.8,0.8
513820,5.40317e+006,301.42,0.8,0.8,0.8
513498,5.40297e+006,291.68,0.8,0.8,0.8
513758,5.40284e+006,309.46,0.8,0.8,0.8
513630,5.40306e+006,293.8,0.8,0.8,0.8
513522,5.40306e+006,291.51,0.8,0.8,0.8
513784,5.4027e+006,308.96,0.8,0.8,0.8
513842,5.40285e+006,323.38,0.8,0.8,0.8
513483,5.40317e+006,289.18,0.8,0.8,0.8
513752,5.40327e+006,289.92,0.8,0.8,0.8
513682,5.40324e+006,294.73,0.8,0.8,0.8
513652,5.403e+006,293.17,0.8,0.8,0.8
513511,5.40267e+006,295.13,0.8,0.8,0.8
513796,5.40305e+006,301.35,0.8,0.8,0.8
513751,5.40296e+006,320.09,0.8,0.8,0.8
513815,5.40272e+006,311.48,0.8,0.8,0.8
513723,5.4032e+006,293.76,0.8,0.8,0.8
513806,5.40275e+006,312.47,0.8,0.8,0.8
513552,5.40304e+006,291.64,0.8,0.8,0.8
513815,5.40286e+006,314.4,0.8,0.8,0.8
513820,5.40278e+006,315.21,0.8,0.8,0.8
513499,5.40272e+006,293.13,0.8,0.8,0.8
513471,5.40298e+006,291.05,0.8,0.8,0.8
513753,5.40322e+006,293.44,0.8,0.8,0.8
513827,5.4027e+006,314.33,0.8,0.8,0.8
513527,5.40308e+006,290.86,0.8,0.8,0.8
513554,5.40308e+006,306.49,0.8,0.8,0.8
513598,5.40277e+006,298.89,0.8,0.8,0.8
513799,5.40273e+006,322.87,0.8,0.8,0.8
513776,5.403e+006,318.12,0.8,0.8,0.8
513614,5.40286e+006,292.24,0.8,0.8,0.8
513513,5.4029e+006,293.1,0.8,0.8,0.8
513586,5.40272e+006,302.44,0.8,0.8,0.8
513689,5.40275e+006,299.91,0.8,0.8,0.8
513676,5.40305e+006,293.77,0.8,0.8,0.8
513649,5.40289e+006,288.89,0.8,0.8,0.8
513628,5.40309e+006,311.44,0.8,0.8,0.8
513599,5.4032e+006,299.94,0.8,0.8,0.8
513731,5.40265e+006,307.99,0.8,0.8,0.8
513451,5.40293e+006,292.3,0.8,0.8,0.8
513548,5.40283e+006,292.81,0.8,0.8,0.8
513603,5.40293e+006,293.04,0.8,0.8,0.8
513501,5.40322e+006,289.75,0.8,0.8,0.8
513685,5.40272e+006,300.61,0.8,0.8,0.8
513504,5.40304e+006,307.04,0.8,0.8,0.8
513843,5.40276e+006,315.53,0.8,0.8,0.8
513508,5.40298e+006,291.82,0.8,0.8,0.8
513764,5.40323e+006,293.65,0.8,0.8,0.8
513543,5.40324e+006,289.13,0.8,0.8,0.8
513636,5.4027e+006,310.89,0.8,0.8,0.8
513738,5.40283e+006,301.25,0.8,0.8,0.8
513659,5.40301e+006,293.36,0.8,0.8,0.8
513468,5.40296e+006,291.21,0.8,0.8,0.8
513469,5.40316e+006,289.24,0.8,0.8,0.8
513723,5.4028e+006,300.89,0.8,0.8,0.8
513784,5.40275e+006,309.61,0.8,0.8,0.8
513456,5.40307e+006,296.38,0.8,0.8,0.8
513841,5.4029e+006,320.62,0.8,0.8,0.8
513585,5.40308e+006,311.49,0.8,0.8,0.8
513782,5.40297e+006,322.41,0.8,0.8,0.8
513819,5.40272e+006,311.62,0.8,0.8,0.8
513627,5.4028e+006,312.1,0.8,0.8,0.8
513711,5.40326e+006,300.2,0.8,0.8,0.8
513678,5.40271e+006,323.55,0.8,0.8,0.8
513467,5.40323e+006,306.43,0.8,0.8,0.8
513484,5.40267e+006,287.48,0.8,0.8,0.8
513648,5.4032e+006,291.94,0.8,0.8,0.8
513600,5.40312e+006,291.32,0.8,0.8,0.8
513522,5.40305e+006,291.36,0.8,0.8,0.8
513462,5.40274e+006,292.08,0.8,0.8,0.8
513848,5.40294e+006,328.44,0.8,0.8,0.8
513500,5.4027e+006,299.65,0.8,0.8,0.8
513636,5.40296e+006,296.02,0.8,0.8,0.8
513526,5.40287e+006,293.23,0.8,0.8,0.8
513673,5.40291e+006,296.38,0.8,0.8,0.8
513563,5.40299e+006,292.71,0.8,0.8,0.8
513509,5.40278e+006,302.14,0.8,0.8,0.8
513586,5.40307e+006,291.21,0.8,0.8,0.8
513571,5.40301e+006,292.26,0.8,0.8,0.8
513735,5.40292e+006,321.71,0.8,0.8,0.8
513652,5.40291e+006,294.13,0.8,0.8,0.8
513699,5.40327e+006,295.41,0.8,0.8,0.8
513591,5.40308e+006,303.55,0.8,0.8,0.8
513654,5.40295e+006,293.69,0.8,0.8,0.8
513606,5.40324e+006,290.2,0.8,0.8,0.8
513456,5.40283e+006,293.16,0.8,0.8,0.8
513844,5.40315e+006,301.96,0.8,0.8,0.8
513526,5.403e+006,293.07,0.8,0.8,0.8
513857,5.40296e+006,320.33,0.8,0.8,0.8
513774,5.40285e+006,322.65,0.8,0.8,0.8
513454,5.40325e+006,298.21,0.8,0.8,0.8
513636,5.40284e+006,315.15,0.8,0.8,0.8
513684,5.4027e+006,302.61,0.8,0.8,0.8
513536,5.40297e+006,315.54,0.8,0.8,0.8
513627,5.40273e+006,313.66,0.8,0.8,0.8
513549,5.4028e+006,292.7,0.8,0.8,0.8
513633,5.40266e+006,300.03,0.8,0.8,0.8
513708,5.40328e+006,302.75,0.8,0.8,0.8
513611,5.4032e+006,301.43,0.8,0.8,0.8
513620,5.40317e+006,317.4,0.8,0.8,0.8
513696,5.40284e+006,329.27,0.8,0.8,0.8
513491,5.40325e+006,317.1,0.8,0.8,0.8
513604,5.40311e+006,291.49,0.8,0.8,0.8
513543,5.40309e+006,290.81,0.8,0.8,0.8
513801,5.40321e+006,317.66,0.8,0.8,0.8
513602,5.40317e+006,290.25,0.8,0.8,0.8
513716,5.40281e+006,321.25,0.8,0.8,0.8
513505,5.40311e+006,290.38,0.8,0.8,0.8
513581,5.40289e+006,292.76,0.8,0.8,0.8
513645,5.40276e+006,303.52,0.8,0.8,0.8
513534,5.40276e+006,299.13,0.8,0.8,0.8
513787,5.40328e+006,293.21,0.8,0.8,0.8
513777,5.40325e+006,293.39,0.8,0.8,0.8
513835,5.40315e+006,313.15,0.8,0.8,0.8
513632,5.40299e+006,293.21,0.8,0.8,0.8
513730,5.40287e+006,302.28,0.8,0.8,0.8
513629,5.403e+006,293.34,0.8,0.8,0.8
513645,5.40317e+006,310.4,0.8,0.8,0.8
513652,5.4029e+006,289.21,0.8,0.8,0.8
513499,5.40284e+006,297.87,0.8,0.8,0.8
513685,5.40322e+006,293.05,0.8,0.8,0.8
513780,5.40327e+006,293.06,0.8,0.8,0.8
513791,5.40313e+006,293.7,0.8,0.8,0.8
513570,5.40322e+006,311.14,0.8,0.8,0.8
513848,5.40326e+006,316.38,0.8,0.8,0.8
513817,5.4029e+006,311.89,0.8,0.8,0.8
513773,5.40324e+006,308.01,0.8,0.8,0.8
513562,5.40302e+006,292.33,0.8,0.8,0.8
513460,5.40269e+006,293.56,0.8,0.8,0.8
513577,5.40327e+006,309.23,0.8,0.8,0.8
513817,5.40298e+006,310.25,0.8,0.8,0.8
513726,5.40274e+006,304.28,0.8,0.8,0.8
513682,5.40286e+006,325.2,0.8,0.8,0.8
513529,5.40297e+006,314.47,0.8,0.8,0.8
513583,5.40282e+006,300.43,0.8,0.8,0.8
513833,5.40327e+006,299.57,0.8,0.8,0.8
513514,5.40304e+006,311.78,0.8,0.8,0.8
513816,5.40312e+006,294.4,0.8,0.8,0.8
513480,5.40292e+006,292.81,0.8,0.8,0.8
513657,5.40315e+006,295.48,0.8,0.8,0.8
513648,5.40303e+006,292.97,0.8,0.8,0.8
513632,5.40324e+006,298.84,0.8,0.8,0.8
513862,5.40284e+006,323.13,0.8,0.8,0.8
513635,5.40309e+006,292.85,0.8,0.8,0.8
513458,5.40267e+006,302.19,0.8,0.8,0.8
513643,5.40291e+006,293.92,0.8,0.8,0.8
513692,5.40274e+006,323.58,0.8,0.8,0.8
513867,5.40287e+006,321.57,0.8,0.8,0.8
513556,5.40297e+006,317.4,0.8,0.8,0.8
513762,5.40275e+006,318.38,0.8,0.8,0.8
513853,5.40272e+006,318.91,0.8,0.8,0.8
513559,5.40275e+006,297.87,0.8,0.8,0.8
513800,5.40266e+006,309.73,0.8,0.8,0.8
513711,5.40266e+006,322.26,0.8,0.8,0.8
513479,5.40286e+006,307.16,0.8,0.8,0.8
513488,5.40312e+006,289.81,0.8,0.8,0.8
513691,5.40321e+006,293.09,0.8,0.8,0.8
513456,5.40279e+006,302.34,0.8,0.8,0.8
513547,5.40267e+006,297.71,0.8,0.8,0.8
513574,5.40273e+006,296.84,0.8,0.8,0.8
513781,5.40267e+006,312.79,0.8,0.8,0.8
513670,5.40294e+006,301.22,0.8,0.8,0.8
513587,5.40321e+006,289.89,0.8,0.8,0.8
513868,5.40272e+006,322.36,0.8,0.8,0.8
513820,5.40303e+006,318.67,0.8,0.8,0.8
513578,5.40285e+006,292.81,0.8,0.8,0.8
513645,5.40299e+006,293.27,0.8,0.8,0.8
513501,5.40312e+006,290.19,0.8,0.8,0.8
513805,5.40294e+006,325.91,0.8,0.8,0.8
513530,5.403e+006,307.73,0.8,0.8,0.8
513487,5.40324e+006,302.47,0.8,0.8,0.8
513733,5.40267e+006,308.26,0.8,0.8,0.8
513712,5.40321e+006,293.76,0.8,0.8,0.8
513594,5.40327e+006,289.21,0.8,0.8,0.8
513837,5.40293e+006,314.1,0.8,0.8,0.8
513801,5.40284e+006,329.55,0.8,0.8,0.8
513613,5.40269e+006,316.66,0.8,0.8,0.8
513844,5.40319e+006,301.62,0.8,0.8,0.8
513583,5.40294e+006,306.85,0.8,0.8,0.8
513454,5.40266e+006,302.62,0.8,0.8,0.8
513778,5.40265e+006,309.99,0.8,0.8,0.8
513479,5.40318e+006,289.22,0.8,0.8,0.8
513602,5.40266e+006,300.41,0.8,0.8,0.8
513636,5.40321e+006,292.27,0.8,0.8,0.8
513472,5.40309e+006,301.15,0.8,0.8,0.8
513567,5.4032e+006,298.48,0.8,0.8,0.8
513588,5.40327e+006,311.1,0.8,0.8,0.8
513848,5.40322e+006,310.93,0.8,0.8,0.8
513738,5.40288e+006,302.79,0.8,0.8,0.8
513657,5.40322e+006,292.06,0.8,0.8,0.8
513664,5.40283e+006,297.18,0.8,0.8,0.8
513690,5.40327e+006,300.57,0.8,0.8,0.8
513632,5.40288e+006,291.3,0.8,0.8,0.8
513635,5.40306e+006,294.16,0.8,0.8,0.8
513607,5.40291e+006,292.88,0.8,0.8,0.8
513751,5.40328e+006,291,0.8,0.8,0.8
513651,5.40298e+006,292.98,0.8,0.8,0.8
513716,5.40271e+006,325.46,0.8,0.8,0.8
513825,5.40298e+006,309.1,0.8,0.8,0.8
513460,5.40322e+006,289.08,0.8,0.8,0.8
513680,5.40301e+006,295.85,0.8,0.8,0.8
513684,5.40307e+006,293.84,0.8,0.8,0.8
513843,5.4029e+006,320.81,0.8,0.8,0.8
513732,5.40278e+006,301.34,0.8,0.8,0.8
513784,5.40274e+006,308.38,0.8,0.8,0.8
513498,5.40312e+006,290.35,0.8,0.8,0.8
513756,5.40274e+006,306.6,0.8,0.8,0.8
513815,5.40293e+006,312.55,0.8,0.8,0.8
513493,5.40291e+006,292.82,0.8,0.8,0.8
513558,5.40292e+006,292.5,0.8,0.8,0.8
513452,5.40276e+006,312.27,0.8,0.8,0.8
513484,5.40272e+006,296.85,0.8,0.8,0.8
513643,5.40307e+006,298.34,0.8,0.8,0.8
513574,5.40291e+006,302.95,0.8,0.8,0.8
513688,5.40308e+006,293.99,0.8,0.8,0.8
513700,5.40272e+006,305.58,0.8,0.8,0.8
513628,5.40307e+006,311.31,0.8,0.8,0.8
513561,5.40266e+006,304.25,0.8,0.8,0.8
513740,5.40269e+006,329.73,0.8,0.8,0.8
513631,5.40311e+006,298.63,0.8,0.8,0.8
513667,5.40307e+006,290.96,0.8,0.8,0.8
513640,5.40268e+006,310.25,0.8,0.8,0.8
513714,5.40273e+006,302.08,0.8,0.8,0.8
513719,5.40297e+006,302.88,0.8,0.8,0.8
513631,5.4032e+006,291.31,0.8,0.8,0.8
513824,5.40315e+006,310.04,0.8,0.8,0.8
513645,5.4027e+006,311.03,0.8,0.8,0.8
513811,5.40299e+006,308.52,0.8,0.8,0.8
513710,5.40318e+006,293.87,0.8,0.8,0.8
513522,5.40319e+006,290.18,0.8,0.8,0.8
513770,5.40316e+006,293.69,0.8,0.8,0.8
513559,5.4028e+006,292.72,0.8,0.8,0.8
513613,5.40314e+006,313.2,0.8,0.8,0.8
513848,5.4032e+006,305.82,0.8,0.8,0.8
513849,5.4028e+006,332.63,0.8,0.8,0.8
513640,5.40321e+006,299.14,0.8,0.8,0.8
513513,5.40322e+006,289.82,0.8,0.8,0.8
513754,5.40274e+006,305.66,0.8,0.8,0.8
513793,5.40293e+006,309.92,0.8,0.8,0.8
513822,5.40317e+006,305.42,0.8,0.8,0.8
513590,5.40283e+006,305.36,0.8,0.8,0.8
513505,5.40273e+006,293.04,0.8,0.8,0.8
513786,5.40305e+006,295.24,0.8,0.8,0.8
513867,5.40278e+006,338.94,0.8,0.8,0.8
513731,5.40322e+006,294.29,0.8,0.8,0.8
513826,5.40308e+006,306.5,0.8,0.8,0.8
513663,5.40285e+006,292.16,0.8,0.8,0.8
513606,5.4032e+006,296.46,0.8,0.8,0.8
513552,5.40281e+006,292.72,0.8,0.8,0.8
513576,5.40324e+006,289.64,0.8,0.8,0.8
513504,5.40269e+006,299.73,0.8,0.8,0.8
513788,5.40302e+006,306.19,0.8,0.8,0.8
513614,5.4032e+006,290.71,0.8,0.8,0.8
513834,5.40304e+006,318.43,0.8,0.8,0.8
513717,5.40274e+006,309.54,0.8,0.8,0.8
513670,5.40324e+006,294.23,0.8,0.8,0.8
513512,5.40317e+006,289.65,0.8,0.8,0.8
513478,5.40309e+006,298.14,0.8,0.8,0.8
513774,5.40276e+006,312.22,0.8,0.8,0.8
513701,5.40283e+006,312.8,0.8,0.8,0.8
513521,5.40297e+006,313.07,0.8,0.8,0.8
513577,5.40312e+006,307.7,0.8,0.8,0.8
513769,5.403e+006,316.32,0.8,0.8,0.8
513496,5.40266e+006,287.33,0.8,0.8,0.8
513487,5.40307e+006,291.42,0.8,0.8,0.8
513837,5.40316e+006,301.76,0.8,0.8,0.8
513704,5.40302e+006,304.55,0.8,0.8,0.8
513490,5.40298e+006,291.35,0.8,0.8,0.8
513564,5.403e+006,291.99,0.8,0.8,0.8
513602,5.40285e+006,300.53,0.8,0.8,0.8
513674,5.40324e+006,302.74,0.8,0.8,0.8
513461,5.40292e+006,292.83,0.8,0.8,0.8
513790,5.40296e+006,310.24,0.8,0.8,0.8
513731,5.40286e+006,315.11,0.8,0.8,0.8
513729,5.40269e+006,311.09,0.8,0.8,0.8
513761,5.40286e+006,322.4,0.8,0.8,0.8
513580,5.40325e+006,289.72,0.8,0.8,0.8
513472,5.40327e+006,289.69,0.8,0.8,0.8
513715,5.40321e+006,293.84,0.8,0.8,0.8
513782,5.40288e+006,325.35,0.8,0.8,0.8
513748,5.40272e+006,305.47,0.8,0.8,0.8
513450,5.40326e+006,290.66,0.8,0.8,0.8
513731,5.40286e+006,302.14,0.8,0.8,0.8
513586,5.40267e+006,299.96,0.8,0.8,0.8
513552,5.40267e+006,301.87,0.8,0.8,0.8
513715,5.40274e+006,302.06,0.8,0.8,0.8
513544,5.40284e+006,297.06,0.8,0.8,0.8
513479,5.40278e+006,292.55,0.8,0.8,0.8
513845,5.40293e+006,318.04,0.8,0.8,0.8
513782,5.40271e+006,308.43,0.8,0.8,0.8
513645,5.40276e+006,297.08,0.8,0.8,0.8
513789,5.40316e+006,306.75,0.8,0.8,0.8
513684,5.40279e+006,316.68,0.8,0.8,0.8
513858,5.4031e+006,316.9,0.8,0.8,0.8
513843,5.40286e+006,331.03,0.8,0.8,0.8
513504,5.40283e+006,293.12,0.8,0.8,0.8
513804,5.40284e+006,313.09,0.8,0.8,0.8
513626,5.40308e+006,311.4,0.8,0.8,0.8
513783,5.40302e+006,302.83,0.8,0.8,0.8
513765,5.40294e+006,304.76,0.8,0.8,0.8
513679,5.4027e+006,300.65,0.8,0.8,0.8
513685,5.40305e+006,293.69,0.8,0.8,0.8
513680,5.40327e+006,293.15,0.8,0.8,0.8
513786,5.40302e+006,305.96,0.8,0.8,0.8
513659,5.40319e+006,292.29,0.8,0.8,0.8
513809,5.40277e+006,313.57,0.8,0.8,0.8
513806,5.40296e+006,309.62,0.8,0.8,0.8
513666,5.40277e+006,321.01,0.8,0.8,0.8
513527,5.40274e+006,291.88,0.8,0.8,0.8
513653,5.40315e+006,298.35,0.8,0.8,0.8
513818,5.40303e+006,307.1,0.8,0.8,0.8
513545,5.40322e+006,302.27,0.8,0.8,0.8
513585,5.40293e+006,306.64,0.8,0.8,0.8
513636,5.40317e+006,316.21,0.8,0.8,0.8
513742,5.40276e+006,303.41,0.8,0.8,0.8
513497,5.40288e+006,305.95,0.8,0.8,0.8
513490,5.40267e+006,287.83,0.8,0.8,0.8
513674,5.40293e+006,296.2,0.8,0.8,0.8
513499,5.40275e+006,303.67,0.8,0.8,0.8
513538,5.40309e+006,302.59,0.8,0.8,0.8
513654,5.40328e+006,299.61,0.8,0.8,0.8
513462,5.4032e+006,289.16,0.8,0.8,0.8
513686,5.40265e+006,303.2,0.8,0.8,0.8
513630,5.40319e+006,291.47,0.8,0.8,0.8
513528,5.40281e+006,292.93,0.8,0.8,0.8
513567,5.40304e+006,305.83,0.8,0.8,0.8
513831,5.40303e+006,315.08,0.8,0.8,0.8
513626,5.40304e+006,299.9,0.8,0.8,0.8
513649,5.40297e+006,293.02,0.8,0.8,0.8
513488,5.40289e+006,293.28,0.8,0.8,0.8
513557,5.40306e+006,291.29,0.8,0.8,0.8
513733,5.40311e+006,294.19,0.8,0.8,0.8
513785,5.40315e+006,301.22,0.8,0.8,0.8
513561,5.4032e+006,303.52,0.8,0.8,0.8
513714,5.4029e+006,300.94,0.8,0.8,0.8
513501,5.40279e+006,293,0.8,0.8,0.8
513845,5.40311e+006,313.43,0.8,0.8,0.8
513747,5.40307e+006,313.89,0.8,0.8,0.8
513637,5.40309e+006,293.08,0.8,0.8,0.8
513727,5.40268e+006,308.19,0.8,0.8,0.8
513840,5.40285e+006,317.15,0.8,0.8,0.8
513604,5.40269e+006,316.23,0.8,0.8,0.8
513503,5.40267e+006,288.14,0.8,0.8,0.8
513812,5.40316e+006,306.45,0.8,0.8,0.8
513674,5.40305e+006,291.65,0.8,0.8,0.8
513607,5.40286e+006,292.94,0.8,0.8,0.8
513619,5.40285e+006,312.98,0.8,0.8,0.8
513488,5.40328e+006,289.79,0.8,0.8,0.8
513557,5.4027e+006,297.4,0.8,0.8,0.8
513553,5.40323e+006,308.72,0.8,0.8,0.8
513464,5.40306e+006,291.52,0.8,0.8,0.8
513865,5.40299e+006,315.14,0.8,0.8,0.8
513615,5.40325e+006,295.98,0.8,0.8,0.8
513552,5.40326e+006,289.19,0.8,0.8,0.8
513581,5.40308e+006,307.62,0.8,0.8,0.8
513852,5.40305e+006,309.17,0.8,0.8,0.8
513592,5.403e+006,293.58,0.8,0.8,0.8
513607,5.40326e+006,289.35,0.8,0.8,0.8
513854,5.40321e+006,308.64,0.8,0.8,0.8
513454,5.40284e+006,293.39,0.8,0.8,0.8
513707,5.40277e+006,302.13,0.8,0.8,0.8
513866,5.40296e+006,320.52,0.8,0.8,0.8
513789,5.40274e+006,315.73,0.8,0.8,0.8
513576,5.40301e+006,307.23,0.8,0.8,0.8
513735,5.40265e+006,311.93,0.8,0.8,0.8
513664,5.40319e+006,292.54,0.8,0.8,0.8
513500,5.40289e+006,293.01,0.8,0.8,0.8
513619,5.40294e+006,293.06,0.8,0.8,0.8
513818,5.40304e+006,316.84,0.8,0.8,0.8
513551,5.40272e+006,296.84,0.8,0.8,0.8
513859,5.40312e+006,319.56,0.8,0.8,0.8
513784,5.40308e+006,311.42,0.8,0.8,0.8
513783,5.40291e+006,315.95,0.8,0.8,0.8
513792,5.4028e+006,328.74,0.8,0.8,0.8
513790,5.40308e+006,295.2,0.8,0.8,0.8
513857,5.40305e+006,311.41,0.8,0.8,0.8
513634,5.40271e+006,313.7,0.8,0.8,0.8
513715,5.40305e+006,296.9,0.8,0.8,0.8
513856,5.40295e+006,320.11,0.8,0.8,0.8
513833,5.40291e+006,312.5,0.8,0.8,0.8
513637,5.40304e+006,293.42,0.8,0.8,0.8
513848,5.40297e+006,309.54,0.8,0.8,0.8
513602,5.40265e+006,300.42,0.8,0.8,0.8
513846,5.40324e+006,303.25,0.8,0.8,0.8
513584,5.40265e+006,302.34,0.8,0.8,0.8
513549,5.40321e+006,307.1,0.8,0.8,0.8
513826,5.40276e+006,328.45,0.8,0.8,0.8
513857,5.40285e+006,337.36,0.8,0.8,0.8
513459,5.40277e+006,292.21,0.8,0.8,0.8
513862,5.40313e+006,309.69,0.8,0.8,0.8
513652,5.40316e+006,297.5,0.8,0.8,0.8
513515,5.40288e+006,293.23,0.8,0.8,0.8
513733,5.40296e+006,313.2,0.8,0.8,0.8
513762,5.40306e+006,310.68,0.8,0.8,0.8
513811,5.40272e+006,311.27,0.8,0.8,0.8
513828,5.40297e+006,330.72,0.8,0.8,0.8
513738,5.40269e+006,330.15,0.8,0.8,0.8
513623,5.40277e+006,305.92,0.8,0.8,0.8
513708,5.40281e+006,317.26,0.8,0.8,0.8
513806,5.4028e+006,313.24,0.8,0.8,0.8
513839,5.40295e+006,316.27,0.8,0.8,0.8
513819,5.40299e+006,308.73,0.8,0.8,0.8
513793,5.40294e+006,310.28,0.8,0.8,0.8
513573,5.40286e+006,298.57,0.8,0.8,0.8
513536,5.40326e+006,293.09,0.8,0.8,0.8
513720,5.40307e+006,310.52,0.8,0.8,0.8
513736,5.40277e+006,310.21,0.8,0.8,0.8
513731,5.40309e+006,294.64,0.8,0.8,0.8
513853,5.40272e+006,315.75,0.8,0.8,0.8
513817,5.40305e+006,306.55,0.8,0.8,0.8
513677,5.40294e+006,312.12,0.8,0.8,0.8
513704,5.40272e+006,302.21,0.8,0.8,0.8
513608,5.40303e+006,311.36,0.8,0.8,0.8
513806,5.40278e+006,312.24,0.8,0.8,0.8
513668,5.40324e+006,298.11,0.8,0.8,0.8
513846,5.40285e+006,325.01,0.8,0.8,0.8
513529,5.40308e+006,290.86,0.8,0.8,0.8
513609,5.40279e+006,295.15,0.8,0.8,0.8
513539,5.40282e+006,295.89,0.8,0.8,0.8
513537,5.40275e+006,292.04,0.8,0.8,0.8
513490,5.40268e+006,288.05,0.8,0.8,0.8
513591,5.40291e+006,292.89,0.8,0.8,0.8
513715,5.40284e+006,301.28,0.8,0.8,0.8
513862,5.40274e+006,324.48,0.8,0.8,0.8
513715,5.40273e+006,302.76,0.8,0.8,0.8
513693,5.40293e+006,311.78,0.8,0.8,0.8
513663,5.40281e+006,295.74,0.8,0.8,0.8
513575,5.40319e+006,290.94,0.8,0.8,0.8
513782,5.40303e+006,295.22,0.8,0.8,0.8
513512,5.4027e+006,299.54,0.8,0.8,0.8
513603,5.40314e+006,312.61,0.8,0.8,0.8
513667,5.403e+006,293.45,0.8,0.8,0.8
513791,5.40313e+006,293.65,0.8,0.8,0.8
513712,5.40313e+006,294,0.8,0.8,0.8
513651,5.40312e+006,294.33,0.8,0.8,0.8
513457,5.40324e+006,308.39,0.8,0.8,0.8
513592,5.40328e+006,304.13,0.8,0.8,0.8
513708,5.40281e+006,317.29,0.8,0.8,0.8
513708,5.40308e+006,311.08,0.8,0.8,0.8
513579,5.4032e+006,295.51,0.8,0.8,0.8
513466,5.40311e+006,297.67,0.8,0.8,0.8
513572,5.40266e+006,302.96,0.8,0.8,0.8
513454,5.40269e+006,292.84,0.8,0.8,0.8
513596,5.40316e+006,290.34,0.8,0.8,0.8
513611,5.40287e+006,292.97,0.8,0.8,0.8
513502,5.40317e+006,289.52,0.8,0.8,0.8
513517,5.40291e+006,292.89,0.8,0.8,0.8
513793,5.40291e+006,325.15,0.8,0.8,0.8
513572,5.40316e+006,290.31,0.8,0.8,0.8
513541,5.40307e+006,312.07,0.8,0.8,0.8
513853,5.40303e+006,325.02,0.8,0.8,0.8
513630,5.40326e+006,289.78,0.8,0.8,0.8
513843,5.40296e+006,309.62,0.8,0.8,0.8
513778,5.40287e+006,319.2,0.8,0.8,0.8
513727,5.40282e+006,321.54,0.8,0.8,0.8
513580,5.40327e+006,318.78,0.8,0.8,0.8
513716,5.40266e+006,307.92,0.8,0.8,0.8
513727,5.40316e+006,295.81,0.8,0.8,0.8
513570,5.40287e+006,292.67,0.8,0.8,0.8
513612,5.40306e+006,312.96,0.8,0.8,0.8
513763,5.40312e+006,312.77,0.8,0.8,0.8
513529,5.40284e+006,300.34,0.8,0.8,0.8
513533,5.40297e+006,314.77,0.8,0.8,0.8
513464,5.40297e+006,292.12,0.8,0.8,0.8
513456,5.40279e+006,305.66,0.8,0.8,0.8
513465,5.40314e+006,289.57,0.8,0.8,0.8
513583,5.40272e+006,297.71,0.8,0.8,0.8
513814,5.4031e+006,295.2,0.8,0.8,0.8
513740,5.40288e+006,318.75,0.8,0.8,0.8
513481,5.40296e+006,306.8,0.8,0.8,0.8
513791,5.40328e+006,289.41,0.8,0.8,0.8
513577,5.40271e+006,301.39,0.8,0.8,0.8
513549,5.40283e+006,292.55,0.8,0.8,0.8
513776,5.40281e+006,312.47,0.8,0.8,0.8
513849,5.40281e+006,333.89,0.8,0.8,0.8
513518,5.40269e+006,289.55,0.8,0.8,0.8
513535,5.40284e+006,309.41,0.8,0.8,0.8
513570,5.40268e+006,299.28,0.8,0.8,0.8
513535,5.4031e+006,304.11,0.8,0.8,0.8
513652,5.40328e+006,301.96,0.8,0.8,0.8
513862,5.40295e+006,322.81,0.8,0.8,0.8
513685,5.40314e+006,293.97,0.8,0.8,0.8
513759,5.4027e+006,328.97,0.8,0.8,0.8
513793,5.40327e+006,293.04,0.8,0.8,0.8
513522,5.40279e+006,292.81,0.8,0.8,0.8
513824,5.40276e+006,330.62,0.8,0.8,0.8
513855,5.40283e+006,330.3,0.8,0.8,0.8
513868,5.40268e+006,335.91,0.8,0.8,0.8
513619,5.40312e+006,292.3,0.8,0.8,0.8
513595,5.40328e+006,303.2,0.8,0.8,0.8
513825,5.40319e+006,301.28,0.8,0.8,0.8
513819,5.40293e+006,324.4,0.8,0.8,0.8
513608,5.40297e+006,293.14,0.8,0.8,0.8
513536,5.40307e+006,298.26,0.8,0.8,0.8
513839,5.40305e+006,317.53,0.8,0.8,0.8
513543,5.40306e+006,291.37,0.8,0.8,0.8
513615,5.40266e+006,300.64,0.8,0.8,0.8
513548,5.40268e+006,297.79,0.8,0.8,0.8
513737,5.40269e+006,310.27,0.8,0.8,0.8
513651,5.4031e+006,293.59,0.8,0.8,0.8
513682,5.40305e+006,293.76,0.8,0.8,0.8
513484,5.40286e+006,306.8,0.8,0.8,0.8
513817,5.40303e+006,307.01,0.8,0.8,0.8
513474,5.40322e+006,304.75,0.8,0.8,0.8
513806,5.40312e+006,294.01,0.8,0.8,0.8
513485,5.4029e+006,293.09,0.8,0.8,0.8
513565,5.40327e+006,312.87,0.8,0.8,0.8
513754,5.4031e+006,312.45,0.8,0.8,0.8
513477,5.40312e+006,289.87,0.8,0.8,0.8
513850,5.40284e+006,325.24,0.8,0.8,0.8
513547,5.40292e+006,292.54,0.8,0.8,0.8
513688,5.40294e+006,304.1,0.8,0.8,0.8
513558,5.40314e+006,290.54,0.8,0.8,0.8
513661,5.40312e+006,304.66,0.8,0.8,0.8
513503,5.40285e+006,301.72,0.8,0.8,0.8
513621,5.40317e+006,316.22,0.8,0.8,0.8
513580,5.40318e+006,308.88,0.8,0.8,0.8
513700,5.40274e+006,300.77,0.8,0.8,0.8
513866,5.40267e+006,330.22,0.8,0.8,0.8
513670,5.40278e+006,320.53,0.8,0.8,0.8
513621,5.40316e+006,313.92,0.8,0.8,0.8
513818,5.40308e+006,307.75,0.8,0.8,0.8
513743,5.40267e+006,309.04,0.8,0.8,0.8
513477,5.40325e+006,300.71,0.8,0.8,0.8
513575,5.40308e+006,308.86,0.8,0.8,0.8
513802,5.40321e+006,305.02,0.8,0.8,0.8
513868,5.40305e+006,326.95,0.8,0.8,0.8
513536,5.40267e+006,297.93,0.8,0.8,0.8
513740,5.40312e+006,294.52,0.8,0.8,0.8
513767,5.40311e+006,311.22,0.8,0.8,0.8
513768,5.40279e+006,324.32,0.8,0.8,0.8
513596,5.40285e+006,299.93,0.8,0.8,0.8
513820,5.40313e+006,308.63,0.8,0.8,0.8
513690,5.40277e+006,299.43,0.8,0.8,0.8
513453,5.40317e+006,298.21,0.8,0.8,0.8
513602,5.40315e+006,311.29,0.8,0.8,0.8
513490,5.40299e+006,300.93,0.8,0.8,0.8
513527,5.40298e+006,315.29,0.8,0.8,0.8
513831,5.40286e+006,316.47,0.8,0.8,0.8
513726,5.40291e+006,323.73,0.8,0.8,0.8
513528,5.40274e+006,292.04,0.8,0.8,0.8
513853,5.40268e+006,327.84,0.8,0.8,0.8
513824,5.40283e+006,331.79,0.8,0.8,0.8
513676,5.40292e+006,296.45,0.8,0.8,0.8
513521,5.403e+006,292.31,0.8,0.8,0.8
513811,5.4027e+006,310.8,0.8,0.8,0.8
513464,5.40307e+006,291.04,0.8,0.8,0.8
513742,5.40307e+006,313.33,0.8,0.8,0.8
513838,5.40272e+006,318.98,0.8,0.8,0.8
513692,5.40323e+006,293.56,0.8,0.8,0.8
513858,5.40327e+006,297.34,0.8,0.8,0.8
513671,5.40285e+006,333.17,0.8,0.8,0.8
513720,5.40298e+006,302.87,0.8,0.8,0.8
513513,5.40312e+006,290.46,0.8,0.8,0.8
513861,5.4028e+006,318.8,0.8,0.8,0.8
513514,5.40284e+006,293.1,0.8,0.8,0.8
513453,5.40279e+006,292.71,0.8,0.8,0.8
513828,5.40278e+006,330.87,0.8,0.8,0.8
513581,5.40317e+006,308.91,0.8,0.8,0.8
513577,5.40271e+006,301.38,0.8,0.8,0.8
513719,5.40324e+006,293.54,0.8,0.8,0.8
513815,5.4027e+006,310.89,0.8,0.8,0.8
513622,5.40277e+006,305.86,0.8,0.8,0.8
513567,5.40284e+006,292.92,0.8,0.8,0.8
513613,5.40293e+006,296.24,0.8,0.8,0.8
513730,5.40267e+006,310.41,0.8,0.8,0.8
513536,5.40318e+006,290.24,0.8,0.8,0.8
513774,5.40297e+006,306.21,0.8,0.8,0.8
513652,5.40279e+006,295.57,0.8,0.8,0.8
513840,5.40328e+006,296,0.8,0.8,0.8
513465,5.40289e+006,305.73,0.8,0.8,0.8
513844,5.40307e+006,308.8,0.8,0.8,0.8
513605,5.40301e+006,291.11,0.8,0.8,0.8
513753,5.40319e+006,294.3,0.8,0.8,0.8
513784,5.40273e+006,308.42,0.8,0.8,0.8
513837,5.40268e+006,317.52,0.8,0.8,0.8
513697,5.40275e+006,300.25,0.8,0.8,0.8
513671,5.40269e+006,323.59,0.8,0.8,0.8
513661,5.40288e+006,286.72,0.8,0.8,0.8
513719,5.40286e+006,301.62,0.8,0.8,0.8
513789,5.40311e+006,310.69,0.8,0.8,0.8
513639,5.40273e+006,313.62,0.8,0.8,0.8
513502,5.4027e+006,299.66,0.8,0.8,0.8
513586,5.40281e+006,302,0.8,0.8,0.8
513695,5.40293e+006,311.81,0.8,0.8,0.8
513629,5.40278e+006,301.37,0.8,0.8,0.8
513741,5.40272e+006,304.88,0.8,0.8,0.8
513710,5.40284e+006,300.9,0.8,0.8,0.8
513724,5.40269e+006,311.45,0.8,0.8,0.8
513672,5.40283e+006,300.22,0.8,0.8,0.8
513709,5.40316e+006,293.91,0.8,0.8,0.8
513655,5.4027e+006,299.75,0.8,0.8,0.8
513492,5.40318e+006,289.23,0.8,0.8,0.8
513846,5.40293e+006,329.9,0.8,0.8,0.8
513526,5.40271e+006,293.52,0.8,0.8,0.8
513846,5.40321e+006,313.13,0.8,0.8,0.8
513784,5.40266e+006,309.46,0.8,0.8,0.8
513766,5.40268e+006,323.52,0.8,0.8,0.8
513862,5.40284e+006,334.53,0.8,0.8,0.8
513793,5.40275e+006,326.47,0.8,0.8,0.8
513478,5.40271e+006,299.31,0.8,0.8,0.8
513531,5.40276e+006,292.13,0.8,0.8,0.8
513690,5.40274e+006,323.57,0.8,0.8,0.8
513662,5.40311e+006,293.74,0.8,0.8,0.8
513565,5.40279e+006,292.59,0.8,0.8,0.8
513672,5.40302e+006,293.41,0.8,0.8,0.8
513718,5.40305e+006,297.81,0.8,0.8,0.8
513600,5.40301e+006,311.34,0.8,0.8,0.8
513701,5.40306e+006,297.27,0.8,0.8,0.8
513797,5.40284e+006,326.85,0.8,0.8,0.8
513746,5.40294e+006,308.76,0.8,0.8,0.8
513762,5.4028e+006,322.87,0.8,0.8,0.8
513590,5.40267e+006,316.5,0.8,0.8,0.8
513592,5.40319e+006,297.33,0.8,0.8,0.8
513822,5.40289e+006,326.71,0.8,0.8,0.8
513556,5.40274e+006,299.39,0.8,0.8,0.8
513720,5.40279e+006,300.72,0.8,0.8,0.8
513484,5.40321e+006,289.34,0.8,0.8,0.8
513530,5.40316e+006,290.34,0.8,0.8,0.8
513698,5.40321e+006,293.61,0.8,0.8,0.8
513798,5.40306e+006,295.5,0.8,0.8,0.8
513604,5.40294e+006,292.96,0.8,0.8,0.8
513624,5.4032e+006,291.05,0.8,0.8,0.8
513759,5.40294e+006,304.52,0.8,0.8,0.8
513693,5.40266e+006,306.95,0.8,0.8,0.8
513593,5.40282e+006,299.89,0.8,0.8,0.8
513665,5.40301e+006,293.41,0.8,0.8,0.8
513803,5.40269e+006,310.82,0.8,0.8,0.8
513819,5.40275e+006,314.99,0.8,0.8,0.8
513603,5.40292e+006,293.38,0.8,0.8,0.8
513846,5.40284e+006,319.27,0.8,0.8,0.8
513643,5.40308e+006,294.37,0.8,0.8,0.8
513716,5.40268e+006,311.62,0.8,0.8,0.8
513474,5.40298e+006,291.03,0.8,0.8,0.8
513696,5.40324e+006,293.65,0.8,0.8,0.8
513861,5.40271e+006,322.73,0.8,0.8,0.8
513573,5.40301e+006,297.78,0.8,0.8,0.8
513795,5.40312e+006,298.29,0.8,0.8,0.8
513481,5.40274e+006,306.96,0.8,0.8,0.8
513711,5.40309e+006,295.69,0.8,0.8,0.8
513516,5.40296e+006,307.09,0.8,0.8,0.8
513848,5.40308e+006,316.67,0.8,0.8,0.8
513545,5.40273e+006,293.1,0.8,0.8,0.8
513837,5.40288e+006,328.21,0.8,0.8,0.8
513529,5.40276e+006,292.05,0.8,0.8,0.8
513840,5.40298e+006,330.83,0.8,0.8,0.8
513720,5.40306e+006,294.59,0.8,0.8,0.8
513810,5.40314e+006,302.86,0.8,0.8,0.8
513839,5.40286e+006,334.56,0.8,0.8,0.8
513566,5.40316e+006,291.61,0.8,0.8,0.8
513522,5.40312e+006,290.52,0.8,0.8,0.8
513831,5.40326e+006,300.35,0.8,0.8,0.8
513498,5.40302e+006,307.76,0.8,0.8,0.8
513791,5.40321e+006,298.63,0.8,0.8,0.8
513815,5.403e+006,308.05,0.8,0.8,0.8
513829,5.40271e+006,325.9,0.8,0.8,0.8
513774,5.40288e+006,323.46,0.8,0.8,0.8
513791,5.40303e+006,306.22,0.8,0.8,0.8
513756,5.40279e+006,308.11,0.8,0.8,0.8
513766,5.40268e+006,329.74,0.8,0.8,0.8
513467,5.40275e+006,302.09,0.8,0.8,0.8
513676,5.40288e+006,284.85,0.8,0.8,0.8
513689,5.4031e+006,288.8,0.8,0.8,0.8
513552,5.40282e+006,292.67,0.8,0.8,0.8
513578,5.40324e+006,289.68,0.8,0.8,0.8
513486,5.40292e+006,292.81,0.8,0.8,0.8
513573,5.40282e+006,292.62,0.8,0.8,0.8
513528,5.40325e+006,307.08,0.8,0.8,0.8
513664,5.40291e+006,295.57,0.8,0.8,0.8
513509,5.40267e+006,294.25,0.8,0.8,0.8
513787,5.40294e+006,310.05,0.8,0.8,0.8
513758,5.40266e+006,325.44,0.8,0.8,0.8
513707,5.4027e+006,306.68,0.8,0.8,0.8
513527,5.40284e+006,296.15,0.8,0.8,0.8
513708,5.40284e+006,307.21,0.8,0.8,0.8
513786,5.40306e+006,295.51,0.8,0.8,0.8
513583,5.40297e+006,322.21,0.8,0.8,0.8
513467,5.40328e+006,289.75,0.8,0.8,0.8
513862,5.4027e+006,321.98,0.8,0.8,0.8
513472,5.40323e+006,308.59,0.8,0.8,0.8
513729,5.40316e+006,293.95,0.8,0.8,0.8
513653,5.40312e+006,294.32,0.8,0.8,0.8
513744,5.40283e+006,301.9,0.8,0.8,0.8
513549,5.4031e+006,309.15,0.8,0.8,0.8
513585,5.40293e+006,292.07,0.8,0.8,0.8
513596,5.40322e+006,290.09,0.8,0.8,0.8
513742,5.40282e+006,301.31,0.8,0.8,0.8
513524,5.40323e+006,320.06,0.8,0.8,0.8
513848,5.40325e+006,310.69,0.8,0.8,0.8
513600,5.40284e+006,300.83,0.8,0.8,0.8
513583,5.40281e+006,293.07,0.8,0.8,0.8
513715,5.40301e+006,300.6,0.8,0.8,0.8
513536,5.40324e+006,298.13,0.8,0.8,0.8
513767,5.40318e+006,303.18,0.8,0.8,0.8
513797,5.40326e+006,294.94,0.8,0.8,0.8
513805,5.40323e+006,313.92,0.8,0.8,0.8
513671,5.40266e+006,335.95,0.8,0.8,0.8
513512,5.40317e+006,289.68,0.8,0.8,0.8
513750,5.40283e+006,309.62,0.8,0.8,0.8
513734,5.40281e+006,301.18,0.8,0.8,0.8
513502,5.40306e+006,318.55,0.8,0.8,0.8
513864,5.4028e+006,337.67,0.8,0.8,0.8
513768,5.40292e+006,322.22,0.8,0.8,0.8
513838,5.40319e+006,308.83,0.8,0.8,0.8
513779,5.40312e+006,294.89,0.8,0.8,0.8
513843,5.40305e+006,315.98,0.8,0.8,0.8
513818,5.40302e+006,307.23,0.8,0.8,0.8
513657,5.40291e+006,294.09,0.8,0.8,0.8
513590,5.40281e+006,297.29,0.8,0.8,0.8
513711,5.40276e+006,318.28,0.8,0.8,0.8
513545,5.40274e+006,292.95,0.8,0.8,0.8
513823,5.40322e+006,309.52,0.8,0.8,0.8
513740,5.40315e+006,293.8,0.8,0.8,0.8
513545,5.40286e+006,293.15,0.8,0.8,0.8
513748,5.40283e+006,301.94,0.8,0.8,0.8
513531,5.40318e+006,297.25,0.8,0.8,0.8
513688,5.40296e+006,298.41,0.8,0.8,0.8
513474,5.40323e+006,303.11,0.8,0.8,0.8
513864,5.40324e+006,311.88,0.8,0.8,0.8
513591,5.40304e+006,311.4,0.8,0.8,0.8
513685,5.40298e+006,303.99,0.8,0.8,0.8
513508,5.40306e+006,313.46,0.8,0.8,0.8
513602,5.40293e+006,292.99,0.8,0.8,0.8
513864,5.40299e+006,315.37,0.8,0.8,0.8
513623,5.4028e+006,312.13,0.8,0.8,0.8
513868,5.40284e+006,328.6,0.8,0.8,0.8
513801,5.40312e+006,294.85,0.8,0.8,0.8
513641,5.4028e+006,318.52,0.8,0.8,0.8
513629,5.40327e+006,300.08,0.8,0.8,0.8
513863,5.40293e+006,327.31,0.8,0.8,0.8
513507,5.40315e+006,289.74,0.8,0.8,0.8
513568,5.40316e+006,290.3,0.8,0.8,0.8
513458,5.40278e+006,306.79,0.8,0.8,0.8
513571,5.40284e+006,292.75,0.8,0.8,0.8
513533,5.40316e+006,290.37,0.8,0.8,0.8
513549,5.40319e+006,291.06,0.8,0.8,0.8
513647,5.40292e+006,294.45,0.8,0.8,0.8
513855,5.40299e+006,309.5,0.8,0.8,0.8
513470,5.40289e+006,305.94,0.8,0.8,0.8
513508,5.4029e+006,292.91,0.8,0.8,0.8
513729,5.40294e+006,303.01,0.8,0.8,0.8
513751,5.40313e+006,297.79,0.8,0.8,0.8
513746,5.40311e+006,295.86,0.8,0.8,0.8
513867,5.40311e+006,322.3,0.8,0.8,0.8
513840,5.40322e+006,319.33,0.8,0.8,0.8
513834,5.40292e+006,317.59,0.8,0.8,0.8
513575,5.40283e+006,292.63,0.8,0.8,0.8
513542,5.40293e+006,292.4,0.8,0.8,0.8
513789,5.40327e+006,294.76,0.8,0.8,0.8
513687,5.40303e+006,293.57,0.8,0.8,0.8
513462,5.40311e+006,303.73,0.8,0.8,0.8
513842,5.40312e+006,306.4,0.8,0.8,0.8
513831,5.4028e+006,316.59,0.8,0.8,0.8
513499,5.4028e+006,297.78,0.8,0.8,0.8
513762,5.4027e+006,331.8,0.8,0.8,0.8
513768,5.40327e+006,293.01,0.8,0.8,0.8
513743,5.40325e+006,288.9,0.8,0.8,0.8
513513,5.40318e+006,304.59,0.8,0.8,0.8
513512,5.40324e+006,315.93,0.8,0.8,0.8
513519,5.40292e+006,292.72,0.8,0.8,0.8
513826,5.40305e+006,318.61,0.8,0.8,0.8
513506,5.40292e+006,292.81,0.8,0.8,0.8
513858,5.40276e+006,315.54,0.8,0.8,0.8
513863,5.40299e+006,321.82,0.8,0.8,0.8
513840,5.40298e+006,329,0.8,0.8,0.8
513457,5.40312e+006,305.72,0.8,0.8,0.8
513671,5.40313e+006,294.38,0.8,0.8,0.8
513706,5.40298e+006,302.9,0.8,0.8,0.8
513763,5.40275e+006,321.15,0.8,0.8,0.8
513733,5.40281e+006,301.12,0.8,0.8,0.8
513723,5.40304e+006,311.79,0.8,0.8,0.8
513859,5.4032e+006,314.31,0.8,0.8,0.8
513814,5.40308e+006,306.41,0.8,0.8,0.8
513472,5.40328e+006,291.01,0.8,0.8,0.8
513652,5.40318e+006,292.04,0.8,0.8,0.8
513770,5.40314e+006,293.6,0.8,0.8,0.8
513618,5.40318e+006,311.52,0.8,0.8,0.8
513473,5.40324e+006,301.33,0.8,0.8,0.8
513661,5.40297e+006,293.65,0.8,0.8,0.8
513829,5.40313e+006,296.82,0.8,0.8,0.8
513766,5.40285e+006,315.47,0.8,0.8,0.8
513486,5.40299e+006,291.2,0.8,0.8,0.8
513848,5.4029e+006,326.15,0.8,0.8,0.8
513781,5.40319e+006,297.49,0.8,0.8,0.8
513843,5.40288e+006,322.48,0.8,0.8,0.8
513723,5.40277e+006,302.08,0.8,0.8,0.8
513662,5.40297e+006,307.22,0.8,0.8,0.8
513725,5.40321e+006,293.88,0.8,0.8,0.8
513506,5.40275e+006,292.71,0.8,0.8,0.8
513473,5.40315e+006,289.38,0.8,0.8,0.8
513743,5.40287e+006,321.72,0.8,0.8,0.8
513481,5.40295e+006,292.14,0.8,0.8,0.8
513517,5.40306e+006,313.15,0.8,0.8,0.8
513573,5.40326e+006,299.38,0.8,0.8,0.8
513847,5.40306e+006,319.95,0.8,0.8,0.8
513457,5.40311e+006,290.24,0.8,0.8,0.8
513783,5.403e+006,306.77,0.8,0.8,0.8
513636,5.40287e+006,292.94,0.8,0.8,0.8
513505,5.40292e+006,292.85,0.8,0.8,0.8
513635,5.40277e+006,305.72,0.8,0.8,0.8
513475,5.40274e+006,306.54,0.8,0.8,0.8
513686,5.40276e+006,299.29,0.8,0.8,0.8
513785,5.40268e+006,326.53,0.8,0.8,0.8
513666,5.40293e+006,295.16,0.8,0.8,0.8
513641,5.40283e+006,304.3,0.8,0.8,0.8
513763,5.40314e+006,293.67,0.8,0.8,0.8
513752,5.40284e+006,309.5,0.8,0.8,0.8
513608,5.40276e+006,296.89,0.8,0.8,0.8
513478,5.40277e+006,303.5,0.8,0.8,0.8
513673,5.40327e+006,292.02,0.8,0.8,0.8
513868,5.40307e+006,312.1,0.8,0.8,0.8
513481,5.40274e+006,305,0.8,0.8,0.8
513833,5.40316e+006,307.54,0.8,0.8,0.8
513641,5.40324e+006,291.74,0.8,0.8,0.8
513628,5.40292e+006,298.61,0.8,0.8,0.8
513785,5.40315e+006,305.69,0.8,0.8,0.8
513543,5.40293e+006,292.24,0.8,0.8,0.8
513616,5.40322e+006,292.19,0.8,0.8,0.8
513771,5.40285e+006,314.25,0.8,0.8,0.8
513769,5.40326e+006,293.11,0.8,0.8,0.8
513748,5.40271e+006,329.55,0.8,0.8,0.8
513828,5.40302e+006,307.91,0.8,0.8,0.8
513528,5.40322e+006,313.13,0.8,0.8,0.8
513587,5.40272e+006,297.08,0.8,0.8,0.8
513519,5.40324e+006,317.78,0.8,0.8,0.8
513687,5.40301e+006,296.9,0.8,0.8,0.8
513575,5.40328e+006,318.35,0.8,0.8,0.8
513789,5.40312e+006,294.74,0.8,0.8,0.8
513605,5.40283e+006,297.38,0.8,0.8,0.8
513517,5.40316e+006,299.94,0.8,0.8,0.8
513851,5.4027e+006,326.75,0.8,0.8,0.8
513507,5.40321e+006,290.1,0.8,0.8,0.8
513670,5.40284e+006,298.45,0.8,0.8,0.8
513544,5.403e+006,302.15,0.8,0.8,0.8
513846,5.40305e+006,309.14,0.8,0.8,0.8
513722,5.40277e+006,303.99,0.8,0.8,0.8
513727,5.40287e+006,303.1,0.8,0.8,0.8
513858,5.40326e+006,301.61,0.8,0.8,0.8
513770,5.40317e+006,295.35,0.8,0.8,0.8
513741,5.40269e+006,328.04,0.8,0.8,0.8
513520,5.40267e+006,294.97,0.8,0.8,0.8
513558,5.40274e+006,296.69,0.8,0.8,0.8
513538,5.4027e+006,297.84,0.8,0.8,0.8
513629,5.40299e+006,293.24,0.8,0.8,0.8
513593,5.4031e+006,311.4,0.8,0.8,0.8
513623,5.40295e+006,294.52,0.8,0.8,0.8
513495,5.40324e+006,289.59,0.8,0.8,0.8
513492,5.40266e+006,287.32,0.8,0.8,0.8
513681,5.40279e+006,316.68,0.8,0.8,0.8
513515,5.40305e+006,291.15,0.8,0.8,0.8
513792,5.4029e+006,324.62,0.8,0.8,0.8
513758,5.40292e+006,320.49,0.8,0.8,0.8
513839,5.40298e+006,331.13,0.8,0.8,0.8
513763,5.40318e+006,296.72,0.8,0.8,0.8
513816,5.40323e+006,298.18,0.8,0.8,0.8
513868,5.40274e+006,329.19,0.8,0.8,0.8
513553,5.40291e+006,292.65,0.8,0.8,0.8
513500,5.40301e+006,301.74,0.8,0.8,0.8
513838,5.40322e+006,299.46,0.8,0.8,0.8
513627,5.40312e+006,292.66,0.8,0.8,0.8
513732,5.40291e+006,322.68,0.8,0.8,0.8
513520,5.40268e+006,299.26,0.8,0.8,0.8
513609,5.40304e+006,312.92,0.8,0.8,0.8
513485,5.40275e+006,307.81,0.8,0.8,0.8
513865,5.403e+006,313.71,0.8,0.8,0.8
513613,5.40303e+006,311.27,0.8,0.8,0.8
513660,5.40327e+006,289.73,0.8,0.8,0.8
513533,5.40283e+006,305.59,0.8,0.8,0.8
513619,5.40295e+006,293.33,0.8,0.8,0.8
513868,5.40265e+006,330.53,0.8,0.8,0.8
513687,5.40314e+006,293.88,0.8,0.8,0.8
513467,5.40267e+006,294.42,0.8,0.8,0.8
513728,5.4029e+006,320.39,0.8,0.8,0.8
513642,5.40308e+006,297.37,0.8,0.8,0.8
513758,5.40289e+006,304.28,0.8,0.8,0.8
513675,5.4032e+006,292.71,0.8,0.8,0.8
513652,5.40286e+006,292.37,0.8,0.8,0.8
513609,5.40294e+006,293.1,0.8,0.8,0.8
513716,5.40328e+006,293.96,0.8,0.8,0.8
513645,5.40272e+006,299.68,0.8,0.8,0.8
513665,5.40303e+006,292.45,0.8,0.8,0.8
513627,5.40317e+006,315.61,0.8,0.8,0.8
513713,5.40273e+006,302.24,0.8,0.8,0.8
513560,5.40277e+006,293.18,0.8,0.8,0.8
513581,5.40305e+006,306.5,0.8,0.8,0.8
513468,5.40284e+006,305.85,0.8,0.8,0.8
513818,5.40286e+006,313.09,0.8,0.8,0.8
513815,5.4027e+006,310.78,0.8,0.8,0.8
513683,5.40283e+006,332.34,0.8,0.8,0.8
513468,5.40297e+006,298.32,0.8,0.8,0.8
513557,5.40305e+006,303.38,0.8,0.8,0.8
513579,5.40289e+006,306.03,0.8,0.8,0.8
513561,5.40291e+006,292.61,0.8,0.8,0.8
513688,5.40271e+006,300.7,0.8,0.8,0.8
513784,5.4031e+006,311.22,0.8,0.8,0.8
513799,5.40306e+006,298.6,0.8,0.8,0.8
513693,5.4031e+006,295.11,0.8,0.8,0.8
513780,5.40327e+006,293,0.8,0.8,0.8
513543,5.40323e+006,315.09,0.8,0.8,0.8
513734,5.40292e+006,324.27,0.8,0.8,0.8
513854,5.40297e+006,326.94,0.8,0.8,0.8
513771,5.4029e+006,307.11,0.8,0.8,0.8
513830,5.40295e+006,326.18,0.8,0.8,0.8
513586,5.40292e+006,307.03,0.8,0.8,0.8
513542,5.40285e+006,293.52,0.8,0.8,0.8
513547,5.4029e+006,293.33,0.8,0.8,0.8
513678,5.40287e+006,286.65,0.8,0.8,0.8
513474,5.40296e+006,291.19,0.8,0.8,0.8
513705,5.40326e+006,310.29,0.8,0.8,0.8
513622,5.40271e+006,313.42,0.8,0.8,0.8
513633,5.40277e+006,296.84,0.8,0.8,0.8
513852,5.40313e+006,306.64,0.8,0.8,0.8
513716,5.40268e+006,312.51,0.8,0.8,0.8
513565,5.40313e+006,290.59,0.8,0.8,0.8
513694,5.40322e+006,293.21,0.8,0.8,0.8
513506,5.40301e+006,299.59,0.8,0.8,0.8
513475,5.40298e+006,291.12,0.8,0.8,0.8
513842,5.40294e+006,317.9,0.8,0.8,0.8
513484,5.40309e+006,296.07,0.8,0.8,0.8
513638,5.40311e+006,293.29,0.8,0.8,0.8
513773,5.40276e+006,317.49,0.8,0.8,0.8
513515,5.40266e+006,299.05,0.8,0.8,0.8
513601,5.40327e+006,300.86,0.8,0.8,0.8
513655,5.40309e+006,294.11,0.8,0.8,0.8
513842,5.40272e+006,325.62,0.8,0.8,0.8
513531,5.40297e+006,315.57,0.8,0.8,0.8
513639,5.4028e+006,315.24,0.8,0.8,0.8
513802,5.40283e+006,329.41,0.8,0.8,0.8
513464,5.40292e+006,292.7,0.8,0.8,0.8
513549,5.40308e+006,305.15,0.8,0.8,0.8
513655,5.40287e+006,291.69,0.8,0.8,0.8
513694,5.40304e+006,296.71,0.8,0.8,0.8
513723,5.40327e+006,293.3,0.8,0.8,0.8
513640,5.40269e+006,312.98,0.8,0.8,0.8
513769,5.4029e+006,304.6,0.8,0.8,0.8
513673,5.40301e+006,293.5,0.8,0.8,0.8
513749,5.40266e+006,322.29,0.8,0.8,0.8
513742,5.40278e+006,306.23,0.8,0.8,0.8
513789,5.40328e+006,293.82,0.8,0.8,0.8
