x,y,z,r,g,b
495181.968750,5419878.000000,335.200012,0.8,0.8,0.8
494416.750000,5420052.500000,281.679993,0.8,0.8,0.8
494570.562500,5420113.000000,256.820007,0.8,0.8,0.8
493930.156250,5420101.500000,255.779999,0.8,0.8,0.8
494038.062500,5420043.500000,253.029999,0.8,0.8,0.8
495020.406250,5420402.000000,284.720001,0.8,0.8,0.8
494548.812500,5419884.000000,312.929993,0.8,0.8,0.8
494631.625000,5419985.000000,259.709991,0.8,0.8,0.8
494524.250000,5420464.000000,259.730011,0.8,0.8,0.8
493960.281250,5419952.000000,253.690002,0.8,0.8,0.8
493762.250000,5420723.000000,343.839996,0.8,0.8,0.8
493897.062500,5420196.000000,256.359985,0.8,0.8,0.8
493996.718750,5420381.000000,253.000000,0.8,0.8,0.8
494670.937500,5420179.500000,251.880005,0.8,0.8,0.8
494775.125000,5419888.000000,317.109985,0.8,0.8,0.8
494792.218750,5420642.000000,268.989990,0.8,0.8,0.8
494632.750000,5420384.500000,254.679993,0.8,0.8,0.8
493704.906250,5420573.000000,300.029999,0.8,0.8,0.8
494983.468750,5419837.000000,308.470001,0.8,0.8,0.8
494031.937500,5419976.000000,253.089996,0.8,0.8,0.8
494246.531250,5420316.000000,257.459991,0.8,0.8,0.8
494305.875000,5420148.000000,271.179993,0.8,0.8,0.8
494684.781250,5420469.000000,263.869995,0.8,0.8,0.8
494059.218750,5420220.500000,252.720001,0.8,0.8,0.8
494395.625000,5420043.000000,282.950012,0.8,0.8,0.8
493836.937500,5420211.000000,262.809998,0.8,0.8,0.8
494971.375000,5419939.500000,261.059998,0.8,0.8,0.8
495148.187500,5419983.000000,252.199997,0.8,0.8,0.8
494585.750000,5420877.000000,352.690002,0.8,0.8,0.8
495077.531250,5420159.500000,252.440002,0.8,0.8,0.8
495076.437500,5420734.000000,323.190002,0.8,0.8,0.8
493922.375000,5420934.500000,369.459991,0.8,0.8,0.8
494984.906250,5419951.500000,252.050003,0.8,0.8,0.8
493681.375000,5420148.000000,272.549988,0.8,0.8,0.8
495136.593750,5419869.500000,314.950012,0.8,0.8,0.8
495143.125000,5420410.000000,284.619995,0.8,0.8,0.8
493896.968750,5420955.500000,372.079987,0.8,0.8,0.8
493926.000000,5420132.000000,255.600006,0.8,0.8,0.8
494783.187500,5420137.000000,250.919998,0.8,0.8,0.8
493910.937500,5420408.000000,265.619995,0.8,0.8,0.8
493745.406250,5420947.000000,386.589996,0.8,0.8,0.8
495179.968750,5419920.500000,320.369995,0.8,0.8,0.8
494232.687500,5420177.000000,269.549988,0.8,0.8,0.8
494761.062500,5419973.500000,263.109985,0.8,0.8,0.8
493667.125000,5419998.500000,267.000000,0.8,0.8,0.8
493913.781250,5419931.000000,262.470001,0.8,0.8,0.8
494641.375000,5419889.500000,300.910004,0.8,0.8,0.8
493746.375000,5420000.500000,270.640015,0.8,0.8,0.8
494061.062500,5420651.500000,258.940002,0.8,0.8,0.8
493964.000000,5420108.500000,252.979996,0.8,0.8,0.8
495233.000000,5420550.500000,299.859985,0.8,0.8,0.8
493712.156250,5420911.000000,372.790009,0.8,0.8,0.8
493719.125000,5420567.000000,296.200012,0.8,0.8,0.8
493796.125000,5420160.000000,267.809998,0.8,0.8,0.8
493712.031250,5419879.000000,258.640015,0.8,0.8,0.8
493733.937500,5420539.000000,286.309998,0.8,0.8,0.8
494498.281250,5420885.000000,365.079987,0.8,0.8,0.8
495005.937500,5420054.500000,264.739990,0.8,0.8,0.8
495036.312500,5419932.000000,268.380005,0.8,0.8,0.8
494499.093750,5419982.500000,287.220001,0.8,0.8,0.8
494137.125000,5420745.500000,279.809998,0.8,0.8,0.8
494881.625000,5419945.500000,285.149994,0.8,0.8,0.8
494723.625000,5420232.500000,262.079987,0.8,0.8,0.8
494469.125000,5420579.500000,251.009995,0.8,0.8,0.8
494405.812500,5420525.000000,252.809998,0.8,0.8,0.8
493797.812500,5420098.000000,265.489990,0.8,0.8,0.8
494218.312500,5420880.500000,352.760010,0.8,0.8,0.8
494222.468750,5420950.500000,362.119995,0.8,0.8,0.8
494301.250000,5420726.000000,270.130005,0.8,0.8,0.8
494795.062500,5420079.000000,251.850006,0.8,0.8,0.8
495191.093750,5419912.000000,325.839996,0.8,0.8,0.8
494813.062500,5419998.000000,252.350006,0.8,0.8,0.8
495195.437500,5420353.000000,274.720001,0.8,0.8,0.8
493706.375000,5420974.500000,373.709991,0.8,0.8,0.8
494854.312500,5420560.500000,298.040009,0.8,0.8,0.8
495054.468750,5419947.000000,261.730011,0.8,0.8,0.8
494782.125000,5420926.000000,348.200012,0.8,0.8,0.8
494748.687500,5420081.000000,252.350006,0.8,0.8,0.8
494860.468750,5420531.000000,295.609985,0.8,0.8,0.8
494462.031250,5420002.000000,308.660004,0.8,0.8,0.8
494931.125000,5420350.500000,282.760010,0.8,0.8,0.8
494236.500000,5420431.000000,253.300003,0.8,0.8,0.8
494890.250000,5419852.500000,296.500000,0.8,0.8,0.8
495102.468750,5420980.000000,327.609985,0.8,0.8,0.8
494532.968750,5419985.000000,288.239990,0.8,0.8,0.8
495209.156250,5420641.500000,314.250000,0.8,0.8,0.8
494558.031250,5419901.500000,304.350006,0.8,0.8,0.8
494777.750000,5420220.500000,263.000000,0.8,0.8,0.8
494959.718750,5420154.000000,251.789993,0.8,0.8,0.8
494597.500000,5420116.500000,255.320007,0.8,0.8,0.8
494429.562500,5420892.000000,366.619995,0.8,0.8,0.8
493704.937500,5420947.500000,373.179993,0.8,0.8,0.8
495025.375000,5419865.500000,304.670013,0.8,0.8,0.8
495243.500000,5420006.500000,262.230011,0.8,0.8,0.8
494666.906250,5420507.000000,263.190002,0.8,0.8,0.8
494237.593750,5419955.000000,290.230011,0.8,0.8,0.8
494213.875000,5420635.500000,252.740005,0.8,0.8,0.8
495193.781250,5419946.000000,311.470001,0.8,0.8,0.8
494060.406250,5419908.500000,277.579987,0.8,0.8,0.8
494247.750000,5420332.500000,256.459991,0.8,0.8,0.8
494849.125000,5420346.000000,277.239990,0.8,0.8,0.8
494758.906250,5420413.500000,260.230011,0.8,0.8,0.8
494477.781250,5419948.500000,301.519989,0.8,0.8,0.8
494497.218750,5420520.500000,264.140015,0.8,0.8,0.8
494639.406250,5420963.000000,353.470001,0.8,0.8,0.8
494199.031250,5419858.500000,292.359985,0.8,0.8,0.8
494894.156250,5420450.000000,291.220001,0.8,0.8,0.8
494851.812500,5419827.500000,319.089996,0.8,0.8,0.8
495150.906250,5419956.500000,292.450012,0.8,0.8,0.8
495085.375000,5420925.000000,330.980011,0.8,0.8,0.8
494487.031250,5420860.500000,356.230011,0.8,0.8,0.8
494104.687500,5420109.500000,276.500000,0.8,0.8,0.8
495139.656250,5420888.500000,327.529999,0.8,0.8,0.8
493667.968750,5420651.500000,337.029999,0.8,0.8,0.8
493904.218750,5420580.000000,265.519989,0.8,0.8,0.8
494246.250000,5420094.500000,283.700012,0.8,0.8,0.8
495122.593750,5419909.000000,319.869995,0.8,0.8,0.8
494093.062500,5420649.500000,256.119995,0.8,0.8,0.8
494941.718750,5420469.000000,291.920013,0.8,0.8,0.8
494914.625000,5420964.000000,341.309998,0.8,0.8,0.8
493999.937500,5419812.500000,279.329987,0.8,0.8,0.8
494523.937500,5419969.500000,287.859985,0.8,0.8,0.8
493705.375000,5420416.500000,278.100006,0.8,0.8,0.8
494852.843750,5420197.500000,256.760010,0.8,0.8,0.8
494295.343750,5420347.000000,254.960007,0.8,0.8,0.8
494874.656250,5420262.000000,269.239990,0.8,0.8,0.8
494589.843750,5420502.000000,272.470001,0.8,0.8,0.8
494616.437500,5420200.000000,252.130005,0.8,0.8,0.8
495110.687500,5419860.500000,313.410004,0.8,0.8,0.8
494443.562500,5420059.500000,290.920013,0.8,0.8,0.8
494466.562500,5420707.500000,311.950012,0.8,0.8,0.8
494948.312500,5420726.000000,276.750000,0.8,0.8,0.8
494490.875000,5420517.000000,266.109985,0.8,0.8,0.8
494326.812500,5420650.500000,258.350006,0.8,0.8,0.8
494023.781250,5420495.500000,253.229996,0.8,0.8,0.8
494903.281250,5420083.500000,260.200012,0.8,0.8,0.8
493975.500000,5420527.500000,256.250000,0.8,0.8,0.8
494775.937500,5419928.500000,295.850006,0.8,0.8,0.8
493717.562500,5420410.000000,276.730011,0.8,0.8,0.8
494443.031250,5420608.000000,253.800003,0.8,0.8,0.8
494699.468750,5420948.500000,351.109985,0.8,0.8,0.8
495132.250000,5420401.500000,284.000000,0.8,0.8,0.8
493886.406250,5420124.000000,260.549988,0.8,0.8,0.8
494851.437500,5419886.500000,284.429993,0.8,0.8,0.8
494301.312500,5419961.000000,292.619995,0.8,0.8,0.8
493754.156250,5420373.500000,269.250000,0.8,0.8,0.8
493843.156250,5420401.000000,273.630005,0.8,0.8,0.8
494170.156250,5420002.500000,298.079987,0.8,0.8,0.8
493903.375000,5420426.500000,265.640015,0.8,0.8,0.8
494075.375000,5420987.000000,367.940002,0.8,0.8,0.8
495116.625000,5420751.500000,323.239990,0.8,0.8,0.8
493951.781250,5420601.000000,266.429993,0.8,0.8,0.8
494897.437500,5420106.500000,251.360001,0.8,0.8,0.8
494766.593750,5420019.000000,252.729996,0.8,0.8,0.8
494104.625000,5420049.500000,294.309998,0.8,0.8,0.8
494029.125000,5420619.500000,257.709991,0.8,0.8,0.8
494266.187500,5419979.000000,289.640015,0.8,0.8,0.8
494620.000000,5420986.500000,354.369995,0.8,0.8,0.8
495155.343750,5420216.000000,253.240005,0.8,0.8,0.8
493916.750000,5419984.500000,281.040009,0.8,0.8,0.8
494076.281250,5420587.500000,261.320007,0.8,0.8,0.8
494559.625000,5420225.500000,253.399994,0.8,0.8,0.8
494958.781250,5420260.500000,260.309998,0.8,0.8,0.8
494616.812500,5420093.000000,255.199997,0.8,0.8,0.8
494811.062500,5420909.500000,346.649994,0.8,0.8,0.8
494991.000000,5420584.000000,870.299988,0.8,0.8,0.8
494449.343750,5420501.500000,252.570007,0.8,0.8,0.8
494276.468750,5420879.000000,352.190002,0.8,0.8,0.8
493765.687500,5420331.000000,270.690002,0.8,0.8,0.8
494792.218750,5420443.500000,283.010010,0.8,0.8,0.8
493940.500000,5420097.500000,255.550003,0.8,0.8,0.8
494361.968750,5420958.000000,360.279999,0.8,0.8,0.8
494990.687500,5419820.500000,317.839996,0.8,0.8,0.8
493770.281250,5420664.500000,321.019989,0.8,0.8,0.8
494842.531250,5419956.500000,277.399994,0.8,0.8,0.8
494882.000000,5420013.000000,252.020004,0.8,0.8,0.8
494961.218750,5420768.000000,330.630005,0.8,0.8,0.8
495240.312500,5420007.500000,281.209991,0.8,0.8,0.8
494415.343750,5420353.000000,253.419998,0.8,0.8,0.8
493998.593750,5420538.500000,255.509995,0.8,0.8,0.8
494471.625000,5420076.500000,263.190002,0.8,0.8,0.8
495128.437500,5419904.000000,300.279999,0.8,0.8,0.8
493830.312500,5420128.000000,263.279999,0.8,0.8,0.8
494995.093750,5420628.500000,295.410004,0.8,0.8,0.8
494991.750000,5420364.000000,286.390015,0.8,0.8,0.8
494747.906250,5420185.000000,251.800003,0.8,0.8,0.8
494058.187500,5420118.000000,252.809998,0.8,0.8,0.8
493938.906250,5419881.000000,253.779999,0.8,0.8,0.8
494382.812500,5420631.000000,262.359985,0.8,0.8,0.8
494663.468750,5420214.000000,252.009995,0.8,0.8,0.8
495036.562500,5420564.500000,303.260010,0.8,0.8,0.8
494650.062500,5420565.000000,281.359985,0.8,0.8,0.8
494934.593750,5419939.000000,255.300003,0.8,0.8,0.8
494998.718750,5419991.500000,252.330002,0.8,0.8,0.8
494683.718750,5419941.000000,295.459991,0.8,0.8,0.8
494043.656250,5420709.000000,277.059998,0.8,0.8,0.8
494844.937500,5420565.500000,296.709991,0.8,0.8,0.8
494169.156250,5420997.000000,369.980011,0.8,0.8,0.8
493888.125000,5420107.500000,256.529999,0.8,0.8,0.8
494843.781250,5420146.500000,257.730011,0.8,0.8,0.8
494263.312500,5420321.000000,263.010010,0.8,0.8,0.8
493978.625000,5419948.000000,264.380005,0.8,0.8,0.8
494061.343750,5419900.500000,270.329987,0.8,0.8,0.8
494272.843750,5420671.000000,255.679993,0.8,0.8,0.8
494966.500000,5420248.000000,262.510010,0.8,0.8,0.8
494135.406250,5419825.500000,293.209991,0.8,0.8,0.8
495165.312500,5419973.000000,293.809998,0.8,0.8,0.8
494029.250000,5420067.500000,253.639999,0.8,0.8,0.8
494289.718750,5420110.500000,281.380005,0.8,0.8,0.8
494580.687500,5419947.000000,312.220001,0.8,0.8,0.8
493812.781250,5420982.500000,373.730011,0.8,0.8,0.8
494407.093750,5420673.500000,268.540009,0.8,0.8,0.8
494035.531250,5419980.500000,253.039993,0.8,0.8,0.8
494377.250000,5420474.500000,252.509995,0.8,0.8,0.8
494091.437500,5420000.000000,282.000000,0.8,0.8,0.8
495037.625000,5419835.500000,326.220001,0.8,0.8,0.8
494109.125000,5420353.500000,264.339996,0.8,0.8,0.8
494247.750000,5420382.000000,254.479996,0.8,0.8,0.8
495117.687500,5420910.500000,328.920013,0.8,0.8,0.8
494143.250000,5420453.000000,264.089996,0.8,0.8,0.8
494793.500000,5419959.000000,269.899994,0.8,0.8,0.8
493795.375000,5419903.500000,255.330002,0.8,0.8,0.8
494850.343750,5420749.500000,289.510010,0.8,0.8,0.8
495091.500000,5420922.500000,330.510010,0.8,0.8,0.8
495167.125000,5420588.500000,308.239990,0.8,0.8,0.8
494362.593750,5419996.000000,291.209991,0.8,0.8,0.8
494946.406250,5419831.500000,310.140015,0.8,0.8,0.8
494510.062500,5420552.500000,260.510010,0.8,0.8,0.8
494977.062500,5420762.500000,327.079987,0.8,0.8,0.8
494106.187500,5420334.500000,252.669998,0.8,0.8,0.8
494118.093750,5420469.500000,277.679993,0.8,0.8,0.8
494755.031250,5420340.000000,283.940002,0.8,0.8,0.8
493906.406250,5420393.000000,264.850006,0.8,0.8,0.8
495249.062500,5420171.500000,251.330002,0.8,0.8,0.8
494837.593750,5419878.000000,300.579987,0.8,0.8,0.8
493966.437500,5420225.000000,253.449997,0.8,0.8,0.8
494353.562500,5420488.000000,252.610001,0.8,0.8,0.8
494203.375000,5420365.000000,254.619995,0.8,0.8,0.8
493692.312500,5420045.000000,267.410004,0.8,0.8,0.8
494262.000000,5419913.500000,293.489990,0.8,0.8,0.8
495084.875000,5420148.500000,251.889999,0.8,0.8,0.8
495061.250000,5419947.500000,290.820007,0.8,0.8,0.8
494629.718750,5419967.000000,265.869995,0.8,0.8,0.8
494754.468750,5420368.000000,261.959991,0.8,0.8,0.8
494515.906250,5420539.000000,257.209991,0.8,0.8,0.8
494016.093750,5420733.000000,287.450012,0.8,0.8,0.8
494134.562500,5420881.000000,355.089996,0.8,0.8,0.8
493853.875000,5420739.500000,332.570007,0.8,0.8,0.8
494936.531250,5420659.000000,263.170013,0.8,0.8,0.8
493830.375000,5420625.000000,284.059998,0.8,0.8,0.8
494794.093750,5419822.500000,319.119995,0.8,0.8,0.8
495113.906250,5419951.500000,273.549988,0.8,0.8,0.8
494658.625000,5420038.000000,255.630005,0.8,0.8,0.8
493948.125000,5419828.500000,253.619995,0.8,0.8,0.8
493932.812500,5420440.500000,261.420013,0.8,0.8,0.8
494796.437500,5420744.000000,290.959991,0.8,0.8,0.8
494437.468750,5419850.000000,307.940002,0.8,0.8,0.8
494152.093750,5420871.500000,350.670013,0.8,0.8,0.8
494478.062500,5419965.500000,308.720001,0.8,0.8,0.8
494618.812500,5419886.000000,305.700012,0.8,0.8,0.8
494746.406250,5420437.000000,264.609985,0.8,0.8,0.8
493691.625000,5420635.000000,328.359985,0.8,0.8,0.8
493861.843750,5420418.500000,271.559998,0.8,0.8,0.8
494959.218750,5419909.000000,273.859985,0.8,0.8,0.8
494316.187500,5420099.000000,283.579987,0.8,0.8,0.8
494691.031250,5420725.500000,315.630005,0.8,0.8,0.8
493854.468750,5420442.000000,274.579987,0.8,0.8,0.8
495170.062500,5420961.000000,322.769989,0.8,0.8,0.8
495020.593750,5419933.000000,266.179993,0.8,0.8,0.8
494486.656250,5420564.000000,251.050003,0.8,0.8,0.8
494268.500000,5420043.500000,286.640015,0.8,0.8,0.8
494534.968750,5419948.500000,309.369995,0.8,0.8,0.8
494890.031250,5420532.500000,307.820007,0.8,0.8,0.8
495011.125000,5420086.000000,252.309998,0.8,0.8,0.8
495167.625000,5419958.500000,288.809998,0.8,0.8,0.8
494255.281250,5419948.000000,291.190002,0.8,0.8,0.8
494150.718750,5420341.500000,256.429993,0.8,0.8,0.8
494627.937500,5419995.500000,258.850006,0.8,0.8,0.8
494777.718750,5420137.000000,264.390015,0.8,0.8,0.8
495070.093750,5419944.500000,292.420013,0.8,0.8,0.8
494639.968750,5420366.000000,251.369995,0.8,0.8,0.8
495212.312500,5420269.000000,254.679993,0.8,0.8,0.8
494442.375000,5420325.500000,253.649994,0.8,0.8,0.8
494263.906250,5420618.500000,254.279999,0.8,0.8,0.8
493969.906250,5420842.000000,353.010010,0.8,0.8,0.8
494250.531250,5419982.000000,288.989990,0.8,0.8,0.8
494455.125000,5419856.500000,322.730011,0.8,0.8,0.8
494032.906250,5420051.000000,263.500000,0.8,0.8,0.8
494721.718750,5419842.500000,312.440002,0.8,0.8,0.8
494348.937500,5419976.000000,299.549988,0.8,0.8,0.8
495056.093750,5420714.500000,313.959991,0.8,0.8,0.8
495192.718750,5420022.000000,250.639999,0.8,0.8,0.8
493726.875000,5420226.000000,269.059998,0.8,0.8,0.8
495225.750000,5420512.000000,293.250000,0.8,0.8,0.8
494863.781250,5419924.500000,267.200012,0.8,0.8,0.8
494610.968750,5420859.000000,351.940002,0.8,0.8,0.8
493886.468750,5420958.000000,372.589996,0.8,0.8,0.8
493723.812500,5419908.500000,263.239990,0.8,0.8,0.8
494181.625000,5420888.000000,353.850006,0.8,0.8,0.8
494592.000000,5420029.000000,259.269989,0.8,0.8,0.8
493924.812500,5420346.000000,256.609985,0.8,0.8,0.8
494755.281250,5420195.000000,255.419998,0.8,0.8,0.8
494220.187500,5420711.000000,259.029999,0.8,0.8,0.8
494536.031250,5419986.000000,272.519989,0.8,0.8,0.8
494540.937500,5420113.500000,258.170013,0.8,0.8,0.8
494837.187500,5420403.000000,269.269989,0.8,0.8,0.8
494831.875000,5419958.500000,282.359985,0.8,0.8,0.8
494305.906250,5420906.000000,356.170013,0.8,0.8,0.8
494038.593750,5420693.500000,271.649994,0.8,0.8,0.8
493947.843750,5420378.000000,254.649994,0.8,0.8,0.8
494735.656250,5419922.000000,271.040009,0.8,0.8,0.8
494507.843750,5420374.000000,252.039993,0.8,0.8,0.8
493658.062500,5420978.500000,384.179993,0.8,0.8,0.8
494063.468750,5420937.500000,364.059998,0.8,0.8,0.8
495039.281250,5419897.000000,288.029999,0.8,0.8,0.8
494596.500000,5420887.500000,352.700012,0.8,0.8,0.8
494739.718750,5420049.500000,252.600006,0.8,0.8,0.8
494493.468750,5420009.500000,271.440002,0.8,0.8,0.8
493717.562500,5419988.000000,266.010010,0.8,0.8,0.8
495064.531250,5420888.500000,332.609985,0.8,0.8,0.8
495221.031250,5420065.500000,251.600006,0.8,0.8,0.8
494079.250000,5419882.500000,284.709991,0.8,0.8,0.8
494530.406250,5420048.000000,261.799988,0.8,0.8,0.8
493650.156250,5420697.500000,346.390015,0.8,0.8,0.8
494591.062500,5420535.500000,266.880005,0.8,0.8,0.8
494780.656250,5420432.000000,264.339996,0.8,0.8,0.8
493931.062500,5420848.500000,354.690002,0.8,0.8,0.8
494292.937500,5420543.500000,252.309998,0.8,0.8,0.8
494711.718750,5420248.000000,262.630005,0.8,0.8,0.8
494310.437500,5419877.500000,302.730011,0.8,0.8,0.8
494046.000000,5420099.500000,252.800003,0.8,0.8,0.8
494696.437500,5419824.000000,322.149994,0.8,0.8,0.8
494682.031250,5420197.000000,251.970001,0.8,0.8,0.8
494469.593750,5419859.000000,319.359985,0.8,0.8,0.8
494160.500000,5420413.000000,266.739990,0.8,0.8,0.8
494724.000000,5419955.500000,288.320007,0.8,0.8,0.8
494970.750000,5419882.000000,320.679993,0.8,0.8,0.8
495156.718750,5420716.500000,320.769989,0.8,0.8,0.8
495203.000000,5419900.500000,320.230011,0.8,0.8,0.8
494320.187500,5420335.500000,255.470001,0.8,0.8,0.8
494836.343750,5419949.000000,256.920013,0.8,0.8,0.8
493697.218750,5420441.500000,281.179993,0.8,0.8,0.8
495172.250000,5419914.500000,298.480011,0.8,0.8,0.8
494235.875000,5419906.000000,292.549988,0.8,0.8,0.8
494886.937500,5420974.500000,342.369995,0.8,0.8,0.8
493854.687500,5420746.000000,334.829987,0.8,0.8,0.8
494470.343750,5420467.500000,252.369995,0.8,0.8,0.8
494171.812500,5420016.500000,285.899994,0.8,0.8,0.8
494379.781250,5420927.500000,357.089996,0.8,0.8,0.8
494555.437500,5419992.000000,288.100006,0.8,0.8,0.8
495020.343750,5420571.500000,305.679993,0.8,0.8,0.8
494781.062500,5420758.000000,298.600006,0.8,0.8,0.8
493862.062500,5420747.000000,334.059998,0.8,0.8,0.8
494815.562500,5420181.000000,251.979996,0.8,0.8,0.8
493926.281250,5420073.500000,255.720001,0.8,0.8,0.8
494339.750000,5419955.500000,293.959991,0.8,0.8,0.8
494132.906250,5420617.500000,254.199997,0.8,0.8,0.8
494192.968750,5419883.500000,294.190002,0.8,0.8,0.8
495204.531250,5420078.000000,251.750000,0.8,0.8,0.8
494987.000000,5420340.500000,285.839996,0.8,0.8,0.8
494343.781250,5420137.000000,266.839996,0.8,0.8,0.8
494368.093750,5420089.000000,282.750000,0.8,0.8,0.8
495035.843750,5419930.000000,297.320007,0.8,0.8,0.8
494224.125000,5420730.500000,269.410004,0.8,0.8,0.8
493846.500000,5420373.000000,267.649994,0.8,0.8,0.8
493868.718750,5420097.500000,258.820007,0.8,0.8,0.8
494017.718750,5420642.500000,260.119995,0.8,0.8,0.8
495200.406250,5420961.500000,321.579987,0.8,0.8,0.8
494982.937500,5420562.000000,873.409973,0.8,0.8,0.8
494777.593750,5420418.000000,262.980011,0.8,0.8,0.8
494700.968750,5420094.000000,252.410004,0.8,0.8,0.8
495112.718750,5420433.000000,286.950012,0.8,0.8,0.8
494065.625000,5420703.000000,271.500000,0.8,0.8,0.8
495030.625000,5419834.000000,334.929993,0.8,0.8,0.8
494800.500000,5420042.500000,252.119995,0.8,0.8,0.8
494033.031250,5420166.000000,266.309998,0.8,0.8,0.8
495186.031250,5420328.000000,273.769989,0.8,0.8,0.8
494088.781250,5419846.000000,297.739990,0.8,0.8,0.8
493853.718750,5419977.500000,256.119995,0.8,0.8,0.8
494070.343750,5420015.500000,278.049988,0.8,0.8,0.8
494760.375000,5420880.000000,347.329987,0.8,0.8,0.8
495026.406250,5420581.000000,896.349976,0.8,0.8,0.8
494341.875000,5419965.500000,293.859985,0.8,0.8,0.8
495229.031250,5420380.000000,278.519989,0.8,0.8,0.8
494937.500000,5420965.000000,339.940002,0.8,0.8,0.8
494114.531250,5419976.000000,284.600006,0.8,0.8,0.8
494138.250000,5420525.500000,252.940002,0.8,0.8,0.8
493790.718750,5420221.000000,267.880005,0.8,0.8,0.8
494517.593750,5420992.000000,357.480011,0.8,0.8,0.8
494400.687500,5420440.000000,252.740005,0.8,0.8,0.8
494541.750000,5419891.000000,306.709991,0.8,0.8,0.8
493680.031250,5420005.000000,268.500000,0.8,0.8,0.8
494015.312500,5420739.000000,290.510010,0.8,0.8,0.8
495145.187500,5420935.500000,326.390015,0.8,0.8,0.8
494105.281250,5420518.500000,252.729996,0.8,0.8,0.8
494155.593750,5420135.500000,278.309998,0.8,0.8,0.8
494834.343750,5419863.000000,314.450012,0.8,0.8,0.8
494907.125000,5420215.000000,274.480011,0.8,0.8,0.8
495192.031250,5420077.000000,251.720001,0.8,0.8,0.8
494402.062500,5420968.000000,359.670013,0.8,0.8,0.8
494041.812500,5419866.000000,261.570007,0.8,0.8,0.8
494993.500000,5419865.500000,300.679993,0.8,0.8,0.8
495127.625000,5420015.000000,251.839996,0.8,0.8,0.8
494936.500000,5420538.000000,306.100006,0.8,0.8,0.8
494286.656250,5420531.000000,252.990005,0.8,0.8,0.8
494756.625000,5420608.500000,263.540009,0.8,0.8,0.8
493975.375000,5420929.000000,366.230011,0.8,0.8,0.8
494893.906250,5420170.000000,264.450012,0.8,0.8,0.8
493692.406250,5420576.500000,306.079987,0.8,0.8,0.8
493991.312500,5420708.500000,282.160004,0.8,0.8,0.8
495231.187500,5419910.000000,309.070007,0.8,0.8,0.8
494046.625000,5420454.500000,253.100006,0.8,0.8,0.8
494057.406250,5420151.000000,252.880005,0.8,0.8,0.8
494917.062500,5420154.000000,251.990005,0.8,0.8,0.8
493790.375000,5420874.500000,375.779999,0.8,0.8,0.8
494852.000000,5419891.500000,309.970001,0.8,0.8,0.8
494963.656250,5420075.500000,255.270004,0.8,0.8,0.8
494959.656250,5420485.000000,292.679993,0.8,0.8,0.8
493877.781250,5420499.500000,262.559998,0.8,0.8,0.8
494853.156250,5420984.500000,343.869995,0.8,0.8,0.8
494443.968750,5420836.500000,349.630005,0.8,0.8,0.8
494535.156250,5419901.000000,320.149994,0.8,0.8,0.8
494938.093750,5420267.000000,263.260010,0.8,0.8,0.8
494173.968750,5420073.000000,283.329987,0.8,0.8,0.8
495232.625000,5420930.500000,319.500000,0.8,0.8,0.8
494066.843750,5420039.500000,267.059998,0.8,0.8,0.8
494567.125000,5420546.000000,275.660004,0.8,0.8,0.8
494715.343750,5420884.000000,358.510010,0.8,0.8,0.8
494943.375000,5420610.000000,296.570007,0.8,0.8,0.8
494888.718750,5420474.500000,295.019989,0.8,0.8,0.8
494570.656250,5420063.500000,258.950012,0.8,0.8,0.8
495191.968750,5420176.500000,251.660004,0.8,0.8,0.8
494705.875000,5419891.000000,295.250000,0.8,0.8,0.8
494024.593750,5420369.500000,254.550003,0.8,0.8,0.8
494879.125000,5419955.500000,274.290009,0.8,0.8,0.8
494934.968750,5419920.500000,270.519989,0.8,0.8,0.8
493779.281250,5420910.500000,370.459991,0.8,0.8,0.8
494156.343750,5420375.000000,255.190002,0.8,0.8,0.8
495002.031250,5419846.500000,325.070007,0.8,0.8,0.8
494295.500000,5420938.500000,360.179993,0.8,0.8,0.8
494124.875000,5420912.000000,359.290009,0.8,0.8,0.8
494937.906250,5420071.000000,251.369995,0.8,0.8,0.8
494619.625000,5419976.000000,289.989990,0.8,0.8,0.8
495004.531250,5419949.000000,281.100006,0.8,0.8,0.8
493894.375000,5420627.000000,282.859985,0.8,0.8,0.8
493832.625000,5420605.500000,279.089996,0.8,0.8,0.8
493784.625000,5420236.500000,266.709991,0.8,0.8,0.8
493900.312500,5420934.000000,370.200012,0.8,0.8,0.8
494807.718750,5420207.000000,253.649994,0.8,0.8,0.8
494903.500000,5419908.500000,269.250000,0.8,0.8,0.8
493967.531250,5419952.000000,253.529999,0.8,0.8,0.8
494496.156250,5420257.500000,255.270004,0.8,0.8,0.8
493989.406250,5419991.500000,253.039993,0.8,0.8,0.8
494503.625000,5420115.000000,260.010010,0.8,0.8,0.8
494637.218750,5420728.000000,329.630005,0.8,0.8,0.8
494663.906250,5419842.500000,336.709991,0.8,0.8,0.8
494130.562500,5420306.500000,258.309998,0.8,0.8,0.8
493712.218750,5420053.000000,268.390015,0.8,0.8,0.8
494602.593750,5420064.500000,257.040009,0.8,0.8,0.8
493984.625000,5419856.500000,253.039993,0.8,0.8,0.8
493832.875000,5420038.000000,267.510010,0.8,0.8,0.8
494849.312500,5420572.000000,293.649994,0.8,0.8,0.8
494887.968750,5420758.000000,276.820007,0.8,0.8,0.8
494721.156250,5419956.500000,258.910004,0.8,0.8,0.8
494345.812500,5420862.500000,348.619995,0.8,0.8,0.8
494748.968750,5419950.500000,276.859985,0.8,0.8,0.8
494390.093750,5420103.500000,270.029999,0.8,0.8,0.8
494942.625000,5420406.000000,286.410004,0.8,0.8,0.8
494405.656250,5420513.500000,252.699997,0.8,0.8,0.8
494281.625000,5419812.000000,296.119995,0.8,0.8,0.8
494230.062500,5420634.500000,257.029999,0.8,0.8,0.8
494875.406250,5420701.500000,281.450012,0.8,0.8,0.8
494158.750000,5420021.000000,285.630005,0.8,0.8,0.8
494423.031250,5420894.000000,354.070007,0.8,0.8,0.8
493700.718750,5420079.000000,268.739990,0.8,0.8,0.8
495187.625000,5419955.000000,308.079987,0.8,0.8,0.8
494652.687500,5420159.500000,252.139999,0.8,0.8,0.8
494887.312500,5420917.500000,343.579987,0.8,0.8,0.8
494809.125000,5420517.000000,282.140015,0.8,0.8,0.8
494828.875000,5420001.000000,252.179993,0.8,0.8,0.8
495177.031250,5420425.000000,285.220001,0.8,0.8,0.8
494129.406250,5420942.500000,362.769989,0.8,0.8,0.8
494802.812500,5420781.000000,292.429993,0.8,0.8,0.8
494375.281250,5420189.000000,262.950012,0.8,0.8,0.8
494502.093750,5420323.500000,262.170013,0.8,0.8,0.8
493913.968750,5420645.500000,275.290009,0.8,0.8,0.8
495148.531250,5419872.000000,313.750000,0.8,0.8,0.8
493789.968750,5419842.000000,253.740005,0.8,0.8,0.8
493937.718750,5420536.000000,264.329987,0.8,0.8,0.8
494998.093750,5419838.000000,309.329987,0.8,0.8,0.8
493827.437500,5419916.500000,253.970001,0.8,0.8,0.8
495163.781250,5420981.000000,323.239990,0.8,0.8,0.8
494707.312500,5419832.500000,319.480011,0.8,0.8,0.8
493880.687500,5420968.000000,372.600006,0.8,0.8,0.8
494836.031250,5419892.500000,281.799988,0.8,0.8,0.8
494482.468750,5420707.500000,317.899994,0.8,0.8,0.8
494059.812500,5420519.500000,253.009995,0.8,0.8,0.8
494903.406250,5419917.000000,265.200012,0.8,0.8,0.8
494510.156250,5420910.500000,362.119995,0.8,0.8,0.8
494792.218750,5419915.000000,273.859985,0.8,0.8,0.8
494756.593750,5420234.000000,266.609985,0.8,0.8,0.8
494341.968750,5420533.500000,261.149994,0.8,0.8,0.8
494581.281250,5420455.000000,254.149994,0.8,0.8,0.8
494962.187500,5420250.500000,258.170013,0.8,0.8,0.8
494846.875000,5419915.500000,296.410004,0.8,0.8,0.8
495164.343750,5419935.000000,287.019989,0.8,0.8,0.8
494623.312500,5419895.500000,300.790009,0.8,0.8,0.8
495173.718750,5419998.500000,269.309998,0.8,0.8,0.8
494458.437500,5420983.000000,358.730011,0.8,0.8,0.8
494829.406250,5419866.000000,299.890015,0.8,0.8,0.8
494400.843750,5419953.500000,294.329987,0.8,0.8,0.8
495248.250000,5419954.500000,293.809998,0.8,0.8,0.8
494046.562500,5419986.000000,263.239990,0.8,0.8,0.8
494641.062500,5420485.500000,268.500000,0.8,0.8,0.8
494633.781250,5420458.000000,269.029999,0.8,0.8,0.8
494102.031250,5420005.500000,282.079987,0.8,0.8,0.8
494272.843750,5419938.500000,292.279999,0.8,0.8,0.8
494079.437500,5419899.500000,282.059998,0.8,0.8,0.8
494822.937500,5419868.500000,295.309998,0.8,0.8,0.8
494586.781250,5419859.000000,319.170013,0.8,0.8,0.8
495226.562500,5420913.500000,320.160004,0.8,0.8,0.8
494630.750000,5420495.500000,262.649994,0.8,0.8,0.8
494367.531250,5420689.000000,264.179993,0.8,0.8,0.8
494286.125000,5420075.000000,284.149994,0.8,0.8,0.8
494660.156250,5420512.000000,269.690002,0.8,0.8,0.8
493730.312500,5420631.000000,318.380005,0.8,0.8,0.8
494156.656250,5420680.500000,260.589996,0.8,0.8,0.8
495026.093750,5420751.000000,326.480011,0.8,0.8,0.8
494338.593750,5420090.500000,291.609985,0.8,0.8,0.8
493948.375000,5420021.500000,252.470001,0.8,0.8,0.8
494688.468750,5420171.000000,251.779999,0.8,0.8,0.8
495005.250000,5420172.500000,252.740005,0.8,0.8,0.8
494968.218750,5420711.500000,291.630005,0.8,0.8,0.8
495096.625000,5420877.000000,330.279999,0.8,0.8,0.8
495091.812500,5419937.500000,272.440002,0.8,0.8,0.8
493682.000000,5420058.000000,275.760010,0.8,0.8,0.8
494407.875000,5419967.500000,293.339996,0.8,0.8,0.8
494481.000000,5420113.000000,261.540009,0.8,0.8,0.8
494594.562500,5419973.000000,295.390015,0.8,0.8,0.8
494455.843750,5420103.500000,262.980011,0.8,0.8,0.8
494092.031250,5420595.000000,261.420013,0.8,0.8,0.8
494024.468750,5420089.000000,253.440002,0.8,0.8,0.8
494745.000000,5420027.000000,253.160004,0.8,0.8,0.8
494845.656250,5420223.500000,256.299988,0.8,0.8,0.8
495020.093750,5419974.500000,251.929993,0.8,0.8,0.8
493864.812500,5420228.000000,261.549988,0.8,0.8,0.8
495235.656250,5419994.000000,295.410004,0.8,0.8,0.8
494241.125000,5420597.500000,264.959991,0.8,0.8,0.8
494023.656250,5420502.000000,259.410004,0.8,0.8,0.8
495057.812500,5420408.000000,284.890015,0.8,0.8,0.8
493720.937500,5419930.000000,264.380005,0.8,0.8,0.8
494706.468750,5419849.500000,318.010010,0.8,0.8,0.8
494951.875000,5420263.000000,261.899994,0.8,0.8,0.8
493930.625000,5420196.000000,254.270004,0.8,0.8,0.8
494077.718750,5420669.500000,262.019989,0.8,0.8,0.8
494959.968750,5419822.500000,327.010010,0.8,0.8,0.8
494477.625000,5419872.000000,307.220001,0.8,0.8,0.8
494024.093750,5419829.500000,274.730011,0.8,0.8,0.8
494248.625000,5420979.500000,363.500000,0.8,0.8,0.8
494787.343750,5420253.000000,255.410004,0.8,0.8,0.8
494790.781250,5419844.000000,331.339996,0.8,0.8,0.8
494285.375000,5420609.500000,275.579987,0.8,0.8,0.8
494878.375000,5420457.000000,293.149994,0.8,0.8,0.8
493766.718750,5420095.000000,266.660004,0.8,0.8,0.8
495081.187500,5420398.000000,284.089996,0.8,0.8,0.8
493894.687500,5420446.500000,260.899994,0.8,0.8,0.8
494249.687500,5419836.500000,294.799988,0.8,0.8,0.8
493919.281250,5420308.000000,266.040009,0.8,0.8,0.8
493705.593750,5420884.500000,368.880005,0.8,0.8,0.8
494455.500000,5419822.500000,310.579987,0.8,0.8,0.8
494091.343750,5419965.000000,296.429993,0.8,0.8,0.8
494248.093750,5420214.000000,264.859985,0.8,0.8,0.8
494811.750000,5419895.000000,281.100006,0.8,0.8,0.8
494934.687500,5419942.500000,259.429993,0.8,0.8,0.8
494573.625000,5419853.500000,327.320007,0.8,0.8,0.8
494061.062500,5420159.000000,252.839996,0.8,0.8,0.8
495014.718750,5420067.000000,254.429993,0.8,0.8,0.8
494683.406250,5420681.500000,308.989990,0.8,0.8,0.8
494225.000000,5420471.000000,253.699997,0.8,0.8,0.8
495039.625000,5419990.500000,252.020004,0.8,0.8,0.8
494721.906250,5420647.500000,283.429993,0.8,0.8,0.8
493696.593750,5420575.000000,303.720001,0.8,0.8,0.8
494044.875000,5420211.000000,253.229996,0.8,0.8,0.8
494199.656250,5419963.500000,289.350006,0.8,0.8,0.8
495061.781250,5420000.000000,255.699997,0.8,0.8,0.8
493779.625000,5419970.500000,264.339996,0.8,0.8,0.8
493756.125000,5420901.000000,368.459991,0.8,0.8,0.8
494665.500000,5420706.500000,323.399994,0.8,0.8,0.8
494100.375000,5420012.000000,281.200012,0.8,0.8,0.8
493981.718750,5420616.500000,260.250000,0.8,0.8,0.8
494580.562500,5419871.500000,319.480011,0.8,0.8,0.8
494572.125000,5420614.000000,299.190002,0.8,0.8,0.8
494051.906250,5420202.000000,252.960007,0.8,0.8,0.8
494265.500000,5420199.500000,264.970001,0.8,0.8,0.8
494871.687500,5420456.000000,293.089996,0.8,0.8,0.8
494200.125000,5420935.500000,360.920013,0.8,0.8,0.8
494212.343750,5420433.500000,253.240005,0.8,0.8,0.8
494951.062500,5419926.000000,270.089996,0.8,0.8,0.8
493973.968750,5420657.500000,270.089996,0.8,0.8,0.8
494524.125000,5420388.500000,252.020004,0.8,0.8,0.8
495072.718750,5420119.500000,251.759995,0.8,0.8,0.8
494923.468750,5419944.500000,280.480011,0.8,0.8,0.8
494006.468750,5420458.000000,260.000000,0.8,0.8,0.8
494532.906250,5420477.000000,250.910004,0.8,0.8,0.8
493983.375000,5420514.000000,258.640015,0.8,0.8,0.8
493737.656250,5420376.500000,276.399994,0.8,0.8,0.8
494583.218750,5420078.500000,257.600006,0.8,0.8,0.8
494834.093750,5419838.000000,332.769989,0.8,0.8,0.8
493672.437500,5420050.500000,273.309998,0.8,0.8,0.8
494884.218750,5420783.500000,287.429993,0.8,0.8,0.8
493755.875000,5419895.000000,270.309998,0.8,0.8,0.8
494325.406250,5419854.500000,305.950012,0.8,0.8,0.8
494276.843750,5419987.500000,289.850006,0.8,0.8,0.8
494917.468750,5420414.000000,287.760010,0.8,0.8,0.8
493664.656250,5420901.500000,384.029999,0.8,0.8,0.8
493784.500000,5419778.000000,253.300003,0.8,0.8,0.8
494634.781250,5420087.000000,254.529999,0.8,0.8,0.8
493651.343750,5420392.500000,283.269989,0.8,0.8,0.8
494613.625000,5420883.500000,352.190002,0.8,0.8,0.8
493795.843750,5420626.000000,293.869995,0.8,0.8,0.8
494107.500000,5420528.000000,252.690002,0.8,0.8,0.8
494808.968750,5420167.000000,261.829987,0.8,0.8,0.8
493941.843750,5420459.500000,259.320007,0.8,0.8,0.8
494841.781250,5419971.000000,252.160004,0.8,0.8,0.8
493990.437500,5420971.000000,370.459991,0.8,0.8,0.8
493669.031250,5420892.000000,379.309998,0.8,0.8,0.8
493900.750000,5420888.000000,363.649994,0.8,0.8,0.8
494875.125000,5420058.500000,265.609985,0.8,0.8,0.8
494427.312500,5419985.500000,297.160004,0.8,0.8,0.8
494217.437500,5420568.500000,273.750000,0.8,0.8,0.8
494223.375000,5420547.000000,273.079987,0.8,0.8,0.8
494440.125000,5420005.500000,299.540009,0.8,0.8,0.8
494262.906250,5420953.000000,361.619995,0.8,0.8,0.8
495113.531250,5419934.000000,305.630005,0.8,0.8,0.8
494510.125000,5419947.500000,303.209991,0.8,0.8,0.8
494812.531250,5420684.000000,282.390015,0.8,0.8,0.8
494378.250000,5420102.500000,268.380005,0.8,0.8,0.8
494005.781250,5420419.500000,253.539993,0.8,0.8,0.8
495041.718750,5419965.000000,251.740005,0.8,0.8,0.8
494708.218750,5420702.000000,299.690002,0.8,0.8,0.8
494303.593750,5420063.000000,285.019989,0.8,0.8,0.8
493670.218750,5419862.500000,258.709991,0.8,0.8,0.8
494430.562500,5420917.000000,361.380005,0.8,0.8,0.8
494567.812500,5420896.000000,353.649994,0.8,0.8,0.8
494079.250000,5420143.000000,275.640015,0.8,0.8,0.8
494661.156250,5420353.500000,254.360001,0.8,0.8,0.8
494264.656250,5419829.500000,295.540009,0.8,0.8,0.8
494762.343750,5420511.000000,263.929993,0.8,0.8,0.8
495125.125000,5420549.000000,889.409973,0.8,0.8,0.8
493774.718750,5420647.000000,310.190002,0.8,0.8,0.8
494961.625000,5420648.500000,263.260010,0.8,0.8,0.8
495035.718750,5420665.000000,292.109985,0.8,0.8,0.8
494319.250000,5420028.000000,288.309998,0.8,0.8,0.8
495069.468750,5420528.000000,296.690002,0.8,0.8,0.8
493795.843750,5420327.500000,273.250000,0.8,0.8,0.8
494816.312500,5419820.500000,322.119995,0.8,0.8,0.8
495213.656250,5419923.500000,329.589996,0.8,0.8,0.8
494423.656250,5420328.000000,254.000000,0.8,0.8,0.8
493745.781250,5420605.500000,305.399994,0.8,0.8,0.8
493770.906250,5420549.500000,282.540009,0.8,0.8,0.8
494246.937500,5420586.500000,257.989990,0.8,0.8,0.8
495046.625000,5420896.000000,334.029999,0.8,0.8,0.8
494724.968750,5420672.500000,289.350006,0.8,0.8,0.8
495203.250000,5420370.000000,279.059998,0.8,0.8,0.8
494434.687500,5420066.000000,285.540009,0.8,0.8,0.8
494553.968750,5420005.000000,291.850006,0.8,0.8,0.8
493767.593750,5419982.000000,268.570007,0.8,0.8,0.8
494508.781250,5420472.500000,252.630005,0.8,0.8,0.8
494621.750000,5420334.500000,264.549988,0.8,0.8,0.8
493988.187500,5420365.500000,252.839996,0.8,0.8,0.8
494053.812500,5420623.000000,265.089996,0.8,0.8,0.8
493962.593750,5420515.000000,257.209991,0.8,0.8,0.8
494343.687500,5420503.000000,252.770004,0.8,0.8,0.8
494847.093750,5420380.500000,279.519989,0.8,0.8,0.8
494960.593750,5420014.000000,257.739990,0.8,0.8,0.8
494341.843750,5419979.000000,291.579987,0.8,0.8,0.8
493780.812500,5420413.500000,266.279999,0.8,0.8,0.8
493853.531250,5420354.000000,271.299988,0.8,0.8,0.8
495212.531250,5420178.500000,251.419998,0.8,0.8,0.8
494619.656250,5419884.000000,335.929993,0.8,0.8,0.8
493865.562500,5419900.000000,253.059998,0.8,0.8,0.8
494838.125000,5419984.500000,252.270004,0.8,0.8,0.8
493840.843750,5420342.000000,271.410004,0.8,0.8,0.8
494179.781250,5420402.500000,253.860001,0.8,0.8,0.8
494821.687500,5420187.500000,266.290009,0.8,0.8,0.8
493991.781250,5420514.000000,255.009995,0.8,0.8,0.8
493956.281250,5420050.000000,263.399994,0.8,0.8,0.8
494243.781250,5420619.000000,249.880005,0.8,0.8,0.8
494923.906250,5420746.000000,276.619995,0.8,0.8,0.8
495059.281250,5419926.500000,305.220001,0.8,0.8,0.8
493900.812500,5420604.500000,268.510010,0.8,0.8,0.8
495011.406250,5419914.500000,275.209991,0.8,0.8,0.8
494702.062500,5419925.500000,290.559998,0.8,0.8,0.8
494882.750000,5419926.000000,276.859985,0.8,0.8,0.8
494397.062500,5420147.500000,264.279999,0.8,0.8,0.8
494655.375000,5419935.500000,279.170013,0.8,0.8,0.8
494400.125000,5420840.000000,348.029999,0.8,0.8,0.8
494550.343750,5420012.000000,288.459991,0.8,0.8,0.8
493650.906250,5419999.000000,271.079987,0.8,0.8,0.8
494126.531250,5419934.000000,287.160004,0.8,0.8,0.8
494476.375000,5420854.000000,367.000000,0.8,0.8,0.8
494065.093750,5420608.500000,262.290009,0.8,0.8,0.8
493653.437500,5420902.500000,368.679993,0.8,0.8,0.8
494107.125000,5420116.000000,280.910004,0.8,0.8,0.8
494566.125000,5420378.000000,252.320007,0.8,0.8,0.8
494387.000000,5420630.000000,258.440002,0.8,0.8,0.8
494017.562500,5420407.500000,253.570007,0.8,0.8,0.8
493842.156250,5419816.000000,253.320007,0.8,0.8,0.8
494544.750000,5420683.500000,329.899994,0.8,0.8,0.8
494141.250000,5420449.000000,252.509995,0.8,0.8,0.8
494548.625000,5420674.500000,328.220001,0.8,0.8,0.8
494078.000000,5420712.500000,272.630005,0.8,0.8,0.8
495134.375000,5420082.000000,251.949997,0.8,0.8,0.8
494861.406250,5420946.500000,344.510010,0.8,0.8,0.8
494489.531250,5420082.000000,262.089996,0.8,0.8,0.8
495072.750000,5420227.500000,255.039993,0.8,0.8,0.8
494498.093750,5420987.000000,357.970001,0.8,0.8,0.8
494281.875000,5420603.000000,261.809998,0.8,0.8,0.8
494283.375000,5420347.500000,255.110001,0.8,0.8,0.8
493768.875000,5420386.000000,270.070007,0.8,0.8,0.8
493655.500000,5420551.000000,312.119995,0.8,0.8,0.8
494882.687500,5420510.000000,302.690002,0.8,0.8,0.8
494759.937500,5420255.500000,254.020004,0.8,0.8,0.8
495228.875000,5420012.000000,254.440002,0.8,0.8,0.8
494699.375000,5420650.500000,287.660004,0.8,0.8,0.8
494527.156250,5419839.000000,314.070007,0.8,0.8,0.8
495112.812500,5420074.500000,251.960007,0.8,0.8,0.8
494639.812500,5420875.500000,351.500000,0.8,0.8,0.8
494862.031250,5419927.000000,292.850006,0.8,0.8,0.8
494343.218750,5420698.500000,262.929993,0.8,0.8,0.8
495225.718750,5420901.500000,321.160004,0.8,0.8,0.8
494107.250000,5420836.500000,338.410004,0.8,0.8,0.8
494016.156250,5419801.000000,254.460007,0.8,0.8,0.8
494600.687500,5419896.000000,303.720001,0.8,0.8,0.8
494204.937500,5420544.500000,273.269989,0.8,0.8,0.8
495008.218750,5419866.000000,325.640015,0.8,0.8,0.8
494531.593750,5420419.000000,252.300003,0.8,0.8,0.8
495177.187500,5420739.000000,320.149994,0.8,0.8,0.8
493982.718750,5420319.000000,256.950012,0.8,0.8,0.8
494630.406250,5419852.000000,331.320007,0.8,0.8,0.8
494945.625000,5419942.500000,280.339996,0.8,0.8,0.8
493920.625000,5419936.000000,252.520004,0.8,0.8,0.8
494324.562500,5419847.000000,306.769989,0.8,0.8,0.8
493884.093750,5420934.500000,374.809998,0.8,0.8,0.8
493842.812500,5419881.500000,253.020004,0.8,0.8,0.8
494289.562500,5420943.500000,360.750000,0.8,0.8,0.8
495236.000000,5420950.500000,319.609985,0.8,0.8,0.8
494307.906250,5419886.500000,300.049988,0.8,0.8,0.8
494314.375000,5420433.500000,253.380005,0.8,0.8,0.8
494165.625000,5419907.000000,289.589996,0.8,0.8,0.8
493892.812500,5419936.000000,253.240005,0.8,0.8,0.8
494681.937500,5420253.000000,252.520004,0.8,0.8,0.8
493920.062500,5420114.000000,255.850006,0.8,0.8,0.8
494393.406250,5420970.500000,360.089996,0.8,0.8,0.8
494496.000000,5419939.500000,311.859985,0.8,0.8,0.8
494193.312500,5420216.000000,267.510010,0.8,0.8,0.8
494554.750000,5420743.000000,342.869995,0.8,0.8,0.8
495090.937500,5420097.500000,251.850006,0.8,0.8,0.8
493901.687500,5420953.500000,371.820007,0.8,0.8,0.8
495044.843750,5419839.000000,324.160004,0.8,0.8,0.8
494370.625000,5420846.500000,346.959991,0.8,0.8,0.8
494987.718750,5420118.500000,251.800003,0.8,0.8,0.8
494218.062500,5420541.000000,251.199997,0.8,0.8,0.8
493991.593750,5420029.500000,253.070007,0.8,0.8,0.8
493979.625000,5420532.000000,259.579987,0.8,0.8,0.8
495029.937500,5420360.000000,281.630005,0.8,0.8,0.8
494655.937500,5420508.000000,268.250000,0.8,0.8,0.8
493799.281250,5420538.000000,274.540009,0.8,0.8,0.8
494418.781250,5420980.500000,359.570007,0.8,0.8,0.8
493912.687500,5420459.000000,262.059998,0.8,0.8,0.8
494692.218750,5420154.000000,252.100006,0.8,0.8,0.8
493858.187500,5420961.500000,372.890015,0.8,0.8,0.8
494144.500000,5420119.500000,279.790009,0.8,0.8,0.8
494075.937500,5420465.500000,256.809998,0.8,0.8,0.8
494410.875000,5420320.500000,254.330002,0.8,0.8,0.8
493706.437500,5420101.000000,270.839996,0.8,0.8,0.8
494281.468750,5420135.500000,274.000000,0.8,0.8,0.8
494233.625000,5420144.500000,274.980011,0.8,0.8,0.8
494659.375000,5419843.000000,331.350006,0.8,0.8,0.8
494062.687500,5420009.500000,261.619995,0.8,0.8,0.8
493915.750000,5420320.500000,259.929993,0.8,0.8,0.8
495037.562500,5420701.000000,290.029999,0.8,0.8,0.8
494924.156250,5420252.000000,258.630005,0.8,0.8,0.8
493732.343750,5420325.000000,279.630005,0.8,0.8,0.8
494062.281250,5419975.000000,264.989990,0.8,0.8,0.8
494332.093750,5420644.000000,255.309998,0.8,0.8,0.8
494270.593750,5420322.500000,261.989990,0.8,0.8,0.8
495030.156250,5420768.000000,328.070007,0.8,0.8,0.8
494059.125000,5420713.000000,275.420013,0.8,0.8,0.8
495133.437500,5420581.000000,306.859985,0.8,0.8,0.8
494582.812500,5420529.500000,269.519989,0.8,0.8,0.8
494808.906250,5420161.500000,256.950012,0.8,0.8,0.8
494957.343750,5420625.000000,291.160004,0.8,0.8,0.8
494076.187500,5420063.000000,279.250000,0.8,0.8,0.8
495243.000000,5420170.500000,251.320007,0.8,0.8,0.8
495222.937500,5420474.500000,289.000000,0.8,0.8,0.8
494871.812500,5419884.000000,295.450012,0.8,0.8,0.8
493783.031250,5420887.000000,375.190002,0.8,0.8,0.8
494093.343750,5420699.000000,265.980011,0.8,0.8,0.8
494069.000000,5420613.000000,262.489990,0.8,0.8,0.8
493663.250000,5420589.500000,320.970001,0.8,0.8,0.8
494005.187500,5420866.000000,354.070007,0.8,0.8,0.8
494641.312500,5420675.000000,329.260010,0.8,0.8,0.8
494965.531250,5419967.000000,251.889999,0.8,0.8,0.8
494747.031250,5420454.000000,264.619995,0.8,0.8,0.8
494720.812500,5420676.000000,289.579987,0.8,0.8,0.8
495054.000000,5420500.000000,293.660004,0.8,0.8,0.8
494028.593750,5419877.000000,254.259995,0.8,0.8,0.8
493892.937500,5420376.500000,259.670013,0.8,0.8,0.8
494812.062500,5419869.500000,295.250000,0.8,0.8,0.8
494494.500000,5420684.500000,307.910004,0.8,0.8,0.8
493919.593750,5420467.500000,259.179993,0.8,0.8,0.8
494729.625000,5420691.500000,290.070007,0.8,0.8,0.8
495223.500000,5420667.000000,315.390015,0.8,0.8,0.8
494980.031250,5419951.000000,278.160004,0.8,0.8,0.8
494537.375000,5419908.000000,313.079987,0.8,0.8,0.8
494680.500000,5419865.500000,306.230011,0.8,0.8,0.8
493870.000000,5419937.500000,252.979996,0.8,0.8,0.8
493967.562500,5420372.500000,253.500000,0.8,0.8,0.8
493760.562500,5420858.500000,364.279999,0.8,0.8,0.8
494257.843750,5420218.500000,264.350006,0.8,0.8,0.8
494654.156250,5419922.000000,281.549988,0.8,0.8,0.8
494631.031250,5419822.000000,326.459991,0.8,0.8,0.8
495135.156250,5420471.500000,290.149994,0.8,0.8,0.8
494687.031250,5419960.000000,281.690002,0.8,0.8,0.8
495087.312500,5420446.500000,288.010010,0.8,0.8,0.8
493709.093750,5420561.500000,296.950012,0.8,0.8,0.8
494811.906250,5419852.000000,326.940002,0.8,0.8,0.8
494563.843750,5420399.500000,252.539993,0.8,0.8,0.8
493753.531250,5420920.000000,371.450012,0.8,0.8,0.8
494094.093750,5419911.500000,296.579987,0.8,0.8,0.8
494096.062500,5420065.500000,288.480011,0.8,0.8,0.8
495216.937500,5420361.500000,275.029999,0.8,0.8,0.8
494650.031250,5420720.500000,331.089996,0.8,0.8,0.8
493736.500000,5420692.500000,340.929993,0.8,0.8,0.8
494073.375000,5419959.000000,288.450012,0.8,0.8,0.8
495009.093750,5420702.500000,290.299988,0.8,0.8,0.8
494699.250000,5420429.000000,258.459991,0.8,0.8,0.8
494631.343750,5420919.500000,352.329987,0.8,0.8,0.8
494152.500000,5420671.000000,259.079987,0.8,0.8,0.8
494502.562500,5420607.500000,273.890015,0.8,0.8,0.8
493931.937500,5420405.000000,255.369995,0.8,0.8,0.8
494333.125000,5420445.000000,253.089996,0.8,0.8,0.8
494620.406250,5420088.000000,255.240005,0.8,0.8,0.8
493832.062500,5420457.500000,262.859985,0.8,0.8,0.8
494269.250000,5420882.000000,352.809998,0.8,0.8,0.8
493700.281250,5420322.500000,276.589996,0.8,0.8,0.8
493982.843750,5420948.000000,368.750000,0.8,0.8,0.8
494677.125000,5420118.500000,252.419998,0.8,0.8,0.8
493812.593750,5419889.500000,253.820007,0.8,0.8,0.8
493940.906250,5420501.000000,266.910004,0.8,0.8,0.8
494592.000000,5420618.500000,301.500000,0.8,0.8,0.8
494940.531250,5420761.000000,305.220001,0.8,0.8,0.8
494090.031250,5420453.500000,260.549988,0.8,0.8,0.8
494265.062500,5420739.000000,273.940002,0.8,0.8,0.8
493730.468750,5420927.000000,375.540009,0.8,0.8,0.8
494786.906250,5420123.000000,263.059998,0.8,0.8,0.8
493980.125000,5420126.500000,259.660004,0.8,0.8,0.8
494591.500000,5420753.500000,329.130005,0.8,0.8,0.8
494786.031250,5419822.000000,318.359985,0.8,0.8,0.8
494357.500000,5420398.500000,253.520004,0.8,0.8,0.8
494544.968750,5419938.000000,293.779999,0.8,0.8,0.8
494929.843750,5420986.500000,339.559998,0.8,0.8,0.8
494545.437500,5419931.500000,311.420013,0.8,0.8,0.8
494898.156250,5419970.000000,252.050003,0.8,0.8,0.8
494879.468750,5419865.000000,317.149994,0.8,0.8,0.8
494593.593750,5419924.500000,310.329987,0.8,0.8,0.8
493780.875000,5420442.500000,268.209991,0.8,0.8,0.8
494528.125000,5419940.500000,316.079987,0.8,0.8,0.8
494660.843750,5420602.000000,292.570007,0.8,0.8,0.8
494007.000000,5420984.500000,369.730011,0.8,0.8,0.8
494723.250000,5420027.000000,253.960007,0.8,0.8,0.8
494026.031250,5420592.500000,256.220001,0.8,0.8,0.8
494915.625000,5420975.500000,340.910004,0.8,0.8,0.8
494772.906250,5420155.500000,259.149994,0.8,0.8,0.8
494715.437500,5420244.500000,260.760010,0.8,0.8,0.8
493978.562500,5420968.000000,375.640015,0.8,0.8,0.8
494681.218750,5419842.000000,330.660004,0.8,0.8,0.8
495057.062500,5420718.000000,318.500000,0.8,0.8,0.8
493933.375000,5420357.500000,258.980011,0.8,0.8,0.8
494771.187500,5420905.500000,348.119995,0.8,0.8,0.8
494876.593750,5419841.500000,302.649994,0.8,0.8,0.8
494582.500000,5419959.500000,298.350006,0.8,0.8,0.8
495187.843750,5419920.500000,297.859985,0.8,0.8,0.8
494101.687500,5420463.500000,275.929993,0.8,0.8,0.8
494119.562500,5420173.000000,273.790009,0.8,0.8,0.8
493687.031250,5420694.000000,343.429993,0.8,0.8,0.8
493919.218750,5419970.500000,253.229996,0.8,0.8,0.8
495123.718750,5419960.500000,284.279999,0.8,0.8,0.8
494058.562500,5419954.000000,270.609985,0.8,0.8,0.8
495024.656250,5420639.500000,294.049988,0.8,0.8,0.8
494100.531250,5420480.500000,253.259995,0.8,0.8,0.8
494084.093750,5420986.000000,367.329987,0.8,0.8,0.8
494459.312500,5419863.500000,307.399994,0.8,0.8,0.8
494517.125000,5420866.000000,352.899994,0.8,0.8,0.8
494413.343750,5420078.500000,279.239990,0.8,0.8,0.8
494091.125000,5419983.500000,278.829987,0.8,0.8,0.8
494243.781250,5420705.500000,258.609985,0.8,0.8,0.8
494531.937500,5420078.500000,260.350006,0.8,0.8,0.8
494980.812500,5419831.500000,311.019989,0.8,0.8,0.8
494886.625000,5419842.000000,320.970001,0.8,0.8,0.8
494556.031250,5420230.500000,253.369995,0.8,0.8,0.8
495005.343750,5419890.000000,315.079987,0.8,0.8,0.8
495238.500000,5420228.500000,252.369995,0.8,0.8,0.8
494113.937500,5420382.500000,256.220001,0.8,0.8,0.8
494091.968750,5420674.000000,262.790009,0.8,0.8,0.8
495113.593750,5419965.000000,262.510010,0.8,0.8,0.8
494535.593750,5420998.000000,357.109985,0.8,0.8,0.8
493967.718750,5420115.500000,253.009995,0.8,0.8,0.8
494751.843750,5420414.000000,260.350006,0.8,0.8,0.8
494635.718750,5420982.000000,353.890015,0.8,0.8,0.8
494556.375000,5420663.500000,327.809998,0.8,0.8,0.8
494005.812500,5420903.000000,360.799988,0.8,0.8,0.8
494832.968750,5419931.000000,264.440002,0.8,0.8,0.8
494870.281250,5419948.500000,253.550003,0.8,0.8,0.8
495176.937500,5420203.000000,252.889999,0.8,0.8,0.8
494580.281250,5419896.500000,304.929993,0.8,0.8,0.8
494515.250000,5420353.500000,252.130005,0.8,0.8,0.8
494101.875000,5419967.000000,295.779999,0.8,0.8,0.8
493750.000000,5419944.000000,268.450012,0.8,0.8,0.8
494019.625000,5420331.500000,255.070007,0.8,0.8,0.8
494239.125000,5420980.000000,363.820007,0.8,0.8,0.8
