x,y,z,r,g,b
496006,5.42225e+006,319.6,0.8,0.8,0.8
496713,5.42223e+006,293.07,0.8,0.8,0.8
496181,5.4223e+006,308.47,0.8,0.8,0.8
495973,5.42194e+006,313.7,0.8,0.8,0.8
496255,5.42151e+006,295.1,0.8,0.8,0.8
496054,5.42167e+006,308.31,0.8,0.8,0.8
496555,5.42153e+006,288.75,0.8,0.8,0.8
496062,5.42223e+006,303.33,0.8,0.8,0.8
496897,5.42146e+006,310.92,0.8,0.8,0.8
496123,5.42166e+006,305.19,0.8,0.8,0.8
496568,5.42215e+006,292.95,0.8,0.8,0.8
497066,5.42163e+006,304.9,0.8,0.8,0.8
496587,5.42213e+006,292.06,0.8,0.8,0.8
496854,5.42231e+006,293.5,0.8,0.8,0.8
496811,5.42202e+006,285.41,0.8,0.8,0.8
496168,5.42207e+006,303.34,0.8,0.8,0.8
496888,5.42137e+006,287.88,0.8,0.8,0.8
496915,5.42162e+006,296.53,0.8,0.8,0.8
496659,5.42201e+006,296.54,0.8,0.8,0.8
497151,5.42167e+006,300.99,0.8,0.8,0.8
496982,5.4216e+006,297.63,0.8,0.8,0.8
496015,5.42141e+006,273.47,0.8,0.8,0.8
496059,5.42143e+006,274.98,0.8,0.8,0.8
496136,5.4221e+006,302.17,0.8,0.8,0.8
496158,5.42199e+006,309.71,0.8,0.8,0.8
496854,5.42142e+006,293.4,0.8,0.8,0.8
496601,5.42202e+006,299.89,0.8,0.8,0.8
496840,5.42148e+006,311.27,0.8,0.8,0.8
496727,5.4214e+006,289.08,0.8,0.8,0.8
496136,5.42223e+006,302.31,0.8,0.8,0.8
495982,5.42155e+006,883.01,0.8,0.8,0.8
496151,5.42177e+006,310.89,0.8,0.8,0.8
496931,5.42166e+006,297.58,0.8,0.8,0.8
496049,5.42214e+006,302.72,0.8,0.8,0.8
496091,5.42224e+006,303.41,0.8,0.8,0.8
496370,5.42211e+006,298.6,0.8,0.8,0.8
496221,5.42139e+006,290.01,0.8,0.8,0.8
496134,5.42166e+006,304.84,0.8,0.8,0.8
496673,5.42151e+006,283.7,0.8,0.8,0.8
497200,5.42169e+006,299.48,0.8,0.8,0.8
496044,5.4222e+006,300.85,0.8,0.8,0.8
496232,5.42194e+006,310.21,0.8,0.8,0.8
496099,5.42156e+006,302.12,0.8,0.8,0.8
496532,5.42206e+006,296.69,0.8,0.8,0.8
496688,5.42147e+006,289.1,0.8,0.8,0.8
496550,5.42202e+006,296.87,0.8,0.8,0.8
496392,5.42196e+006,303.8,0.8,0.8,0.8
496056,5.42173e+006,310.11,0.8,0.8,0.8
496211,5.42192e+006,311.16,0.8,0.8,0.8
496883,5.42225e+006,291.31,0.8,0.8,0.8
496672,5.42145e+006,285.55,0.8,0.8,0.8
496820,5.42206e+006,283.83,0.8,0.8,0.8
496604,5.42173e+006,290.65,0.8,0.8,0.8
496884,5.42152e+006,309.28,0.8,0.8,0.8
497188,5.42155e+006,303.21,0.8,0.8,0.8
496253,5.42232e+006,295.35,0.8,0.8,0.8
496395,5.42208e+006,299.09,0.8,0.8,0.8
495992,5.42138e+006,272.15,0.8,0.8,0.8
496440,5.42208e+006,298.39,0.8,0.8,0.8
496269,5.42154e+006,295.81,0.8,0.8,0.8
496363,5.42159e+006,297.79,0.8,0.8,0.8
497022,5.42229e+006,290.03,0.8,0.8,0.8
496735,5.42163e+006,284.21,0.8,0.8,0.8
496116,5.42206e+006,305.31,0.8,0.8,0.8
496175,5.4222e+006,304.39,0.8,0.8,0.8
497134,5.42172e+006,295.57,0.8,0.8,0.8
495964,5.42212e+006,302.59,0.8,0.8,0.8
496296,5.42231e+006,296.06,0.8,0.8,0.8
496628,5.42201e+006,297.46,0.8,0.8,0.8
496232,5.42139e+006,289.39,0.8,0.8,0.8
496740,5.42211e+006,288.9,0.8,0.8,0.8
496989,5.42164e+006,307.5,0.8,0.8,0.8
496195,5.42143e+006,293.28,0.8,0.8,0.8
497088,5.42194e+006,275.29,0.8,0.8,0.8
496632,5.4215e+006,274.2,0.8,0.8,0.8
496849,5.422e+006,284.5,0.8,0.8,0.8
496877,5.42178e+006,293.82,0.8,0.8,0.8
497148,5.4223e+006,288.09,0.8,0.8,0.8
496018,5.4216e+006,880.18,0.8,0.8,0.8
496401,5.42157e+006,295.93,0.8,0.8,0.8
496259,5.42223e+006,306.19,0.8,0.8,0.8
496730,5.42176e+006,290.56,0.8,0.8,0.8
496991,5.42162e+006,297.68,0.8,0.8,0.8
496986,5.42142e+006,291.52,0.8,0.8,0.8
496420,5.42222e+006,299.31,0.8,0.8,0.8
496742,5.42153e+006,278.06,0.8,0.8,0.8
495956,5.42168e+006,326.93,0.8,0.8,0.8
496827,5.42228e+006,293.09,0.8,0.8,0.8
496169,5.42226e+006,302.27,0.8,0.8,0.8
496850,5.42203e+006,282.58,0.8,0.8,0.8
496649,5.42167e+006,300.7,0.8,0.8,0.8
496230,5.42198e+006,308.85,0.8,0.8,0.8
496392,5.42176e+006,301.94,0.8,0.8,0.8
496816,5.42139e+006,300.32,0.8,0.8,0.8
497133,5.42139e+006,290.08,0.8,0.8,0.8
495958,5.42174e+006,313.11,0.8,0.8,0.8
496065,5.42155e+006,302.81,0.8,0.8,0.8
496537,5.42147e+006,284.27,0.8,0.8,0.8
496483,5.42162e+006,294.18,0.8,0.8,0.8
496903,5.42217e+006,287.88,0.8,0.8,0.8
496388,5.42157e+006,884.33,0.8,0.8,0.8
496737,5.42137e+006,297.16,0.8,0.8,0.8
496804,5.42171e+006,291.39,0.8,0.8,0.8
496988,5.42204e+006,278.86,0.8,0.8,0.8
496744,5.42169e+006,286.26,0.8,0.8,0.8
496185,5.4223e+006,307.21,0.8,0.8,0.8
496495,5.42153e+006,291.33,0.8,0.8,0.8
496002,5.4216e+006,306.5,0.8,0.8,0.8
496616,5.42138e+006,270.32,0.8,0.8,0.8
495961,5.42222e+006,313.27,0.8,0.8,0.8
496349,5.4221e+006,299,0.8,0.8,0.8
497125,5.42142e+006,293.29,0.8,0.8,0.8
496165,5.42146e+006,295.53,0.8,0.8,0.8
496584,5.4217e+006,285.56,0.8,0.8,0.8
496888,5.42207e+006,283.01,0.8,0.8,0.8
496686,5.42212e+006,290.45,0.8,0.8,0.8
496210,5.42214e+006,299.82,0.8,0.8,0.8
495968,5.42225e+006,322.92,0.8,0.8,0.8
496743,5.42149e+006,298.26,0.8,0.8,0.8
496620,5.42225e+006,295.21,0.8,0.8,0.8
496235,5.42157e+006,298.02,0.8,0.8,0.8
497198,5.42226e+006,286.62,0.8,0.8,0.8
497079,5.4216e+006,299.78,0.8,0.8,0.8
497109,5.42164e+006,298.69,0.8,0.8,0.8
496040,5.42155e+006,302.91,0.8,0.8,0.8
496484,5.42167e+006,292.36,0.8,0.8,0.8
497144,5.42158e+006,302.09,0.8,0.8,0.8
496513,5.42157e+006,292.18,0.8,0.8,0.8
496402,5.42158e+006,883.97,0.8,0.8,0.8
496942,5.42204e+006,279.42,0.8,0.8,0.8
496320,5.4222e+006,301.63,0.8,0.8,0.8
496125,5.42199e+006,310.36,0.8,0.8,0.8
496301,5.42232e+006,305.32,0.8,0.8,0.8
496364,5.42151e+006,292.75,0.8,0.8,0.8
496664,5.42158e+006,276.24,0.8,0.8,0.8
496472,5.42164e+006,294.14,0.8,0.8,0.8
496200,5.42202e+006,306.95,0.8,0.8,0.8
496217,5.42149e+006,295.62,0.8,0.8,0.8
497182,5.42227e+006,286.91,0.8,0.8,0.8
496573,5.42225e+006,296.06,0.8,0.8,0.8
496254,5.42136e+006,286.6,0.8,0.8,0.8
496104,5.42198e+006,311.46,0.8,0.8,0.8
496169,5.42153e+006,299.55,0.8,0.8,0.8
497089,5.42152e+006,306.7,0.8,0.8,0.8
496902,5.42147e+006,315.43,0.8,0.8,0.8
496873,5.42158e+006,284.06,0.8,0.8,0.8
496006,5.42211e+006,303.95,0.8,0.8,0.8
496645,5.42147e+006,272.72,0.8,0.8,0.8
496112,5.4216e+006,304.17,0.8,0.8,0.8
496267,5.42225e+006,300.61,0.8,0.8,0.8
497024,5.42198e+006,277.42,0.8,0.8,0.8
496068,5.42201e+006,309.47,0.8,0.8,0.8
496032,5.42208e+006,304.57,0.8,0.8,0.8
496134,5.42152e+006,299.73,0.8,0.8,0.8
496751,5.42225e+006,293.02,0.8,0.8,0.8
496046,5.42213e+006,302.86,0.8,0.8,0.8
496563,5.42202e+006,296.8,0.8,0.8,0.8
495998,5.42213e+006,303.06,0.8,0.8,0.8
496870,5.42146e+006,307.61,0.8,0.8,0.8
496767,5.42152e+006,278.92,0.8,0.8,0.8
496457,5.42222e+006,300.93,0.8,0.8,0.8
496149,5.42199e+006,310.12,0.8,0.8,0.8
496854,5.42171e+006,297.32,0.8,0.8,0.8
496410,5.42234e+006,298.43,0.8,0.8,0.8
496616,5.42164e+006,282.46,0.8,0.8,0.8
496656,5.42222e+006,293.83,0.8,0.8,0.8
496963,5.42214e+006,286.02,0.8,0.8,0.8
496446,5.42179e+006,300.86,0.8,0.8,0.8
496226,5.42174e+006,307.69,0.8,0.8,0.8
496793,5.42157e+006,285.59,0.8,0.8,0.8
496348,5.42226e+006,296.28,0.8,0.8,0.8
496074,5.42195e+006,312.96,0.8,0.8,0.8
496848,5.42212e+006,286.81,0.8,0.8,0.8
496468,5.42165e+006,294.31,0.8,0.8,0.8
496888,5.42197e+006,283.35,0.8,0.8,0.8
496383,5.42223e+006,296.32,0.8,0.8,0.8
496533,5.42161e+006,290.94,0.8,0.8,0.8
496831,5.42194e+006,288.31,0.8,0.8,0.8
496088,5.42158e+006,303.84,0.8,0.8,0.8
496416,5.42229e+006,298.78,0.8,0.8,0.8
496144,5.42209e+006,302.45,0.8,0.8,0.8
496398,5.4216e+006,297.19,0.8,0.8,0.8
496892,5.42213e+006,286.11,0.8,0.8,0.8
496214,5.42229e+006,301.66,0.8,0.8,0.8
496327,5.42169e+006,302.56,0.8,0.8,0.8
496384,5.42232e+006,302.47,0.8,0.8,0.8
496411,5.42137e+006,281.85,0.8,0.8,0.8
496286,5.42209e+006,300.93,0.8,0.8,0.8
496240,5.42205e+006,304.29,0.8,0.8,0.8
496664,5.4221e+006,290.28,0.8,0.8,0.8
496868,5.42193e+006,285.12,0.8,0.8,0.8
496918,5.4216e+006,293.83,0.8,0.8,0.8
496887,5.42206e+006,281.56,0.8,0.8,0.8
496869,5.42159e+006,281.31,0.8,0.8,0.8
496933,5.42144e+006,300.93,0.8,0.8,0.8
496819,5.42171e+006,293.08,0.8,0.8,0.8
496905,5.42148e+006,316.91,0.8,0.8,0.8
496848,5.422e+006,283.99,0.8,0.8,0.8
496144,5.42192e+006,313.19,0.8,0.8,0.8
496224,5.42206e+006,303.95,0.8,0.8,0.8
496893,5.42208e+006,283.25,0.8,0.8,0.8
496977,5.42175e+006,281.85,0.8,0.8,0.8
496319,5.42195e+006,306.82,0.8,0.8,0.8
496589,5.42194e+006,296.75,0.8,0.8,0.8
495965,5.42215e+006,302.04,0.8,0.8,0.8
496940,5.42207e+006,281.18,0.8,0.8,0.8
496904,5.42154e+006,293.35,0.8,0.8,0.8
496258,5.42201e+006,306.81,0.8,0.8,0.8
496713,5.42148e+006,291.61,0.8,0.8,0.8
497147,5.42155e+006,301.9,0.8,0.8,0.8
496393,5.42147e+006,289.92,0.8,0.8,0.8
496670,5.42199e+006,296.97,0.8,0.8,0.8
496828,5.42147e+006,292.77,0.8,0.8,0.8
496003,5.42216e+006,302.89,0.8,0.8,0.8
496824,5.42159e+006,282.52,0.8,0.8,0.8
496756,5.42205e+006,288.24,0.8,0.8,0.8
496137,5.42164e+006,304.14,0.8,0.8,0.8
496961,5.42141e+006,290.88,0.8,0.8,0.8
496857,5.42178e+006,301.62,0.8,0.8,0.8
496155,5.42175e+006,309.48,0.8,0.8,0.8
496516,5.42231e+006,298.15,0.8,0.8,0.8
496964,5.42152e+006,293.59,0.8,0.8,0.8
496637,5.42178e+006,294.73,0.8,0.8,0.8
495968,5.42222e+006,302.74,0.8,0.8,0.8
496454,5.42138e+006,277.66,0.8,0.8,0.8
496670,5.42225e+006,294.26,0.8,0.8,0.8
496620,5.4214e+006,272.61,0.8,0.8,0.8
496449,5.4216e+006,295.36,0.8,0.8,0.8
496559,5.42196e+006,296.87,0.8,0.8,0.8
496872,5.4214e+006,310.79,0.8,0.8,0.8
496481,5.42219e+006,301.33,0.8,0.8,0.8
496918,5.42159e+006,318.68,0.8,0.8,0.8
497041,5.42178e+006,281.98,0.8,0.8,0.8
496753,5.42197e+006,293.64,0.8,0.8,0.8
496582,5.42197e+006,296.85,0.8,0.8,0.8
496741,5.42137e+006,299,0.8,0.8,0.8
496214,5.42227e+006,301.71,0.8,0.8,0.8
496600,5.42213e+006,291.87,0.8,0.8,0.8
497142,5.42179e+006,289.78,0.8,0.8,0.8
496754,5.42137e+006,292.09,0.8,0.8,0.8
496848,5.42167e+006,292.12,0.8,0.8,0.8
496781,5.42173e+006,291.17,0.8,0.8,0.8
496936,5.42162e+006,302.29,0.8,0.8,0.8
496207,5.42158e+006,299.21,0.8,0.8,0.8
496757,5.42168e+006,287.4,0.8,0.8,0.8
496505,5.42177e+006,294.87,0.8,0.8,0.8
496020,5.42163e+006,307.92,0.8,0.8,0.8
496722,5.4223e+006,296.91,0.8,0.8,0.8
496530,5.4223e+006,297.82,0.8,0.8,0.8
496769,5.42203e+006,288.59,0.8,0.8,0.8
496704,5.42154e+006,275.3,0.8,0.8,0.8
497021,5.4217e+006,292.84,0.8,0.8,0.8
497118,5.42216e+006,283.75,0.8,0.8,0.8
496991,5.42197e+006,278.51,0.8,0.8,0.8
495960,5.42205e+006,305.88,0.8,0.8,0.8
496059,5.42167e+006,308.14,0.8,0.8,0.8
496517,5.42201e+006,296.47,0.8,0.8,0.8
496869,5.42232e+006,293.78,0.8,0.8,0.8
496126,5.42193e+006,313.24,0.8,0.8,0.8
496312,5.42159e+006,890.58,0.8,0.8,0.8
496680,5.42207e+006,290.86,0.8,0.8,0.8
496081,5.42222e+006,302.81,0.8,0.8,0.8
496623,5.42198e+006,296.43,0.8,0.8,0.8
496710,5.42195e+006,296.19,0.8,0.8,0.8
496640,5.42175e+006,293.02,0.8,0.8,0.8
496475,5.42176e+006,296.5,0.8,0.8,0.8
495962,5.42158e+006,882.63,0.8,0.8,0.8
497074,5.42142e+006,292.73,0.8,0.8,0.8
497063,5.42201e+006,277.31,0.8,0.8,0.8
497087,5.42157e+006,304.75,0.8,0.8,0.8
496878,5.42222e+006,290.31,0.8,0.8,0.8
496247,5.42195e+006,309.65,0.8,0.8,0.8
496848,5.42156e+006,283.67,0.8,0.8,0.8
496944,5.4216e+006,297.43,0.8,0.8,0.8
497081,5.42159e+006,884.21,0.8,0.8,0.8
496178,5.42218e+006,300.72,0.8,0.8,0.8
496216,5.42203e+006,306.11,0.8,0.8,0.8
496939,5.42139e+006,303.33,0.8,0.8,0.8
496369,5.42214e+006,298.8,0.8,0.8,0.8
496536,5.42167e+006,288.65,0.8,0.8,0.8
496180,5.42163e+006,302.12,0.8,0.8,0.8
496938,5.42149e+006,292.96,0.8,0.8,0.8
496838,5.42143e+006,306.19,0.8,0.8,0.8
496891,5.42148e+006,289.95,0.8,0.8,0.8
497092,5.42139e+006,293.22,0.8,0.8,0.8
497106,5.422e+006,275.73,0.8,0.8,0.8
496002,5.42219e+006,299.52,0.8,0.8,0.8
496336,5.42174e+006,304.09,0.8,0.8,0.8
497088,5.42155e+006,831.18,0.8,0.8,0.8
497126,5.42162e+006,301.29,0.8,0.8,0.8
496167,5.42176e+006,310.28,0.8,0.8,0.8
495996,5.42151e+006,301.3,0.8,0.8,0.8
496933,5.42192e+006,281.72,0.8,0.8,0.8
496528,5.42225e+006,305.55,0.8,0.8,0.8
496691,5.42148e+006,278.95,0.8,0.8,0.8
496521,5.42166e+006,289.67,0.8,0.8,0.8
495966,5.42167e+006,325.92,0.8,0.8,0.8
496856,5.42222e+006,290.29,0.8,0.8,0.8
496585,5.42162e+006,296.06,0.8,0.8,0.8
497165,5.42204e+006,276.49,0.8,0.8,0.8
496796,5.42148e+006,309.03,0.8,0.8,0.8
497172,5.42222e+006,286.26,0.8,0.8,0.8
496126,5.4214e+006,292.28,0.8,0.8,0.8
495986,5.4215e+006,300.99,0.8,0.8,0.8
497096,5.42163e+006,300.1,0.8,0.8,0.8
496242,5.42211e+006,300.86,0.8,0.8,0.8
496930,5.42223e+006,290.14,0.8,0.8,0.8
496885,5.4215e+006,291.46,0.8,0.8,0.8
496144,5.42215e+006,300.93,0.8,0.8,0.8
496484,5.42214e+006,297.91,0.8,0.8,0.8
496349,5.42154e+006,294.77,0.8,0.8,0.8
496926,5.4214e+006,305.66,0.8,0.8,0.8
496050,5.42205e+006,306.03,0.8,0.8,0.8
496696,5.42168e+006,324.02,0.8,0.8,0.8
497008,5.42194e+006,278.02,0.8,0.8,0.8
496721,5.42209e+006,288.77,0.8,0.8,0.8
497013,5.42195e+006,277.81,0.8,0.8,0.8
496856,5.42218e+006,288.94,0.8,0.8,0.8
496707,5.42153e+006,275.5,0.8,0.8,0.8
496986,5.42232e+006,291.15,0.8,0.8,0.8
496367,5.42172e+006,301.71,0.8,0.8,0.8
497122,5.42232e+006,288.46,0.8,0.8,0.8
496051,5.42172e+006,310.08,0.8,0.8,0.8
497153,5.42138e+006,289.44,0.8,0.8,0.8
496840,5.42166e+006,315.8,0.8,0.8,0.8
496242,5.42147e+006,293.99,0.8,0.8,0.8
496239,5.42192e+006,310.26,0.8,0.8,0.8
496843,5.42203e+006,283.09,0.8,0.8,0.8
496739,5.42215e+006,290.77,0.8,0.8,0.8
496133,5.42219e+006,301.65,0.8,0.8,0.8
496096,5.42225e+006,303.55,0.8,0.8,0.8
496862,5.42229e+006,293.06,0.8,0.8,0.8
496485,5.42166e+006,292.28,0.8,0.8,0.8
496963,5.42193e+006,279.81,0.8,0.8,0.8
496354,5.42196e+006,305.19,0.8,0.8,0.8
497135,5.42193e+006,279.03,0.8,0.8,0.8
496794,5.422e+006,288.17,0.8,0.8,0.8
497019,5.42142e+006,292.45,0.8,0.8,0.8
496638,5.42144e+006,270.19,0.8,0.8,0.8
496440,5.42233e+006,298.5,0.8,0.8,0.8
497041,5.42196e+006,276.95,0.8,0.8,0.8
496230,5.42153e+006,297.53,0.8,0.8,0.8
497173,5.42231e+006,287.31,0.8,0.8,0.8
496334,5.42223e+006,307.02,0.8,0.8,0.8
496564,5.42211e+006,293.38,0.8,0.8,0.8
496906,5.42146e+006,303.96,0.8,0.8,0.8
496496,5.42213e+006,300.46,0.8,0.8,0.8
496964,5.42141e+006,290.83,0.8,0.8,0.8
496734,5.42147e+006,301.84,0.8,0.8,0.8
497169,5.42201e+006,276.86,0.8,0.8,0.8
496250,5.42137e+006,287.61,0.8,0.8,0.8
496749,5.42173e+006,290.05,0.8,0.8,0.8
496109,5.42158e+006,303.46,0.8,0.8,0.8
496415,5.42149e+006,290.7,0.8,0.8,0.8
497164,5.42206e+006,276.94,0.8,0.8,0.8
496824,5.42214e+006,288.11,0.8,0.8,0.8
496260,5.42142e+006,290.39,0.8,0.8,0.8
496631,5.4223e+006,301.85,0.8,0.8,0.8
496317,5.42213e+006,298.66,0.8,0.8,0.8
496047,5.42208e+006,304.43,0.8,0.8,0.8
496321,5.42204e+006,302.8,0.8,0.8,0.8
496715,5.42153e+006,277.74,0.8,0.8,0.8
496600,5.4218e+006,296.75,0.8,0.8,0.8
496795,5.42151e+006,286.37,0.8,0.8,0.8
496859,5.42212e+006,286.83,0.8,0.8,0.8
496702,5.42136e+006,273.62,0.8,0.8,0.8
496277,5.42207e+006,302.09,0.8,0.8,0.8
496959,5.42216e+006,287.43,0.8,0.8,0.8
496624,5.42146e+006,273.24,0.8,0.8,0.8
496939,5.42222e+006,289.79,0.8,0.8,0.8
496046,5.42162e+006,307.5,0.8,0.8,0.8
496906,5.42148e+006,292.92,0.8,0.8,0.8
496935,5.42222e+006,289.75,0.8,0.8,0.8
496130,5.42176e+006,310.63,0.8,0.8,0.8
496025,5.42148e+006,298.8,0.8,0.8,0.8
496983,5.42155e+006,865.74,0.8,0.8,0.8
496704,5.42146e+006,287.46,0.8,0.8,0.8
496540,5.42212e+006,295.93,0.8,0.8,0.8
497147,5.42221e+006,286.73,0.8,0.8,0.8
496172,5.42195e+006,311.79,0.8,0.8,0.8
496561,5.4218e+006,296.34,0.8,0.8,0.8
495978,5.42226e+006,321.98,0.8,0.8,0.8
496576,5.42172e+006,290.82,0.8,0.8,0.8
496664,5.42229e+006,300.64,0.8,0.8,0.8
496424,5.42139e+006,280.52,0.8,0.8,0.8
496462,5.42161e+006,295.01,0.8,0.8,0.8
496801,5.42199e+006,287.99,0.8,0.8,0.8
495982,5.42161e+006,867.38,0.8,0.8,0.8
496425,5.4215e+006,291.32,0.8,0.8,0.8
496373,5.42151e+006,293.09,0.8,0.8,0.8
496959,5.42151e+006,293.52,0.8,0.8,0.8
496954,5.42199e+006,279.5,0.8,0.8,0.8
496761,5.42158e+006,876.03,0.8,0.8,0.8
496507,5.42214e+006,298.73,0.8,0.8,0.8
496231,5.42215e+006,299.28,0.8,0.8,0.8
496274,5.42156e+006,297.38,0.8,0.8,0.8
496846,5.42192e+006,286.42,0.8,0.8,0.8
497075,5.42227e+006,288.73,0.8,0.8,0.8
496440,5.42203e+006,300.26,0.8,0.8,0.8
496588,5.422e+006,296.85,0.8,0.8,0.8
496899,5.42174e+006,298.82,0.8,0.8,0.8
497032,5.42161e+006,304.71,0.8,0.8,0.8
496990,5.42143e+006,291.59,0.8,0.8,0.8
496451,5.42169e+006,295.55,0.8,0.8,0.8
496211,5.4217e+006,305.47,0.8,0.8,0.8
496902,5.4221e+006,284.23,0.8,0.8,0.8
497141,5.42178e+006,290.12,0.8,0.8,0.8
496174,5.42199e+006,310.16,0.8,0.8,0.8
497101,5.42161e+006,300.58,0.8,0.8,0.8
497137,5.42151e+006,305.48,0.8,0.8,0.8
496785,5.42149e+006,299.01,0.8,0.8,0.8
496996,5.42226e+006,289.71,0.8,0.8,0.8
496859,5.42149e+006,301.59,0.8,0.8,0.8
496747,5.42231e+006,295.61,0.8,0.8,0.8
495997,5.42155e+006,303.69,0.8,0.8,0.8
495994,5.42195e+006,313.29,0.8,0.8,0.8
497010,5.42163e+006,304.94,0.8,0.8,0.8
496868,5.42221e+006,289.75,0.8,0.8,0.8
496853,5.42213e+006,287.11,0.8,0.8,0.8
497072,5.42178e+006,284.24,0.8,0.8,0.8
496774,5.42194e+006,292.27,0.8,0.8,0.8
496286,5.42201e+006,305.9,0.8,0.8,0.8
496097,5.42169e+006,307.27,0.8,0.8,0.8
496877,5.42168e+006,298.3,0.8,0.8,0.8
496158,5.42208e+006,302.66,0.8,0.8,0.8
496886,5.42153e+006,292.78,0.8,0.8,0.8
496456,5.42151e+006,291.72,0.8,0.8,0.8
496002,5.42226e+006,304.66,0.8,0.8,0.8
496947,5.42139e+006,300.49,0.8,0.8,0.8
495952,5.42156e+006,881.1,0.8,0.8,0.8
496331,5.42163e+006,299.94,0.8,0.8,0.8
496812,5.42206e+006,284.27,0.8,0.8,0.8
496616,5.42215e+006,292.73,0.8,0.8,0.8
496736,5.42167e+006,285.3,0.8,0.8,0.8
496054,5.42211e+006,302.98,0.8,0.8,0.8
496214,5.42141e+006,291.24,0.8,0.8,0.8
496375,5.42137e+006,281.43,0.8,0.8,0.8
496886,5.42164e+006,293.79,0.8,0.8,0.8
496471,5.42169e+006,322.86,0.8,0.8,0.8
496863,5.42203e+006,281.79,0.8,0.8,0.8
496769,5.42165e+006,286.64,0.8,0.8,0.8
496156,5.42208e+006,302.95,0.8,0.8,0.8
496074,5.42161e+006,306.06,0.8,0.8,0.8
496705,5.42166e+006,299.14,0.8,0.8,0.8
496862,5.42211e+006,285.8,0.8,0.8,0.8
496656,5.42198e+006,300,0.8,0.8,0.8
496773,5.4216e+006,279.14,0.8,0.8,0.8
496465,5.42159e+006,874.58,0.8,0.8,0.8
497083,5.42201e+006,277.11,0.8,0.8,0.8
497158,5.42232e+006,287.69,0.8,0.8,0.8
496182,5.4215e+006,297.45,0.8,0.8,0.8
496637,5.42213e+006,291.61,0.8,0.8,0.8
496252,5.42162e+006,300.08,0.8,0.8,0.8
497034,5.42177e+006,282.08,0.8,0.8,0.8
495978,5.42195e+006,313.21,0.8,0.8,0.8
496331,5.42224e+006,295.58,0.8,0.8,0.8
496710,5.42197e+006,295.92,0.8,0.8,0.8
496458,5.42156e+006,293.88,0.8,0.8,0.8
496108,5.42211e+006,302.34,0.8,0.8,0.8
496583,5.42213e+006,292.14,0.8,0.8,0.8
496142,5.42171e+006,307.32,0.8,0.8,0.8
496209,5.42224e+006,301.5,0.8,0.8,0.8
496564,5.42157e+006,288.65,0.8,0.8,0.8
496024,5.42203e+006,307.26,0.8,0.8,0.8
496852,5.42162e+006,291.02,0.8,0.8,0.8
497089,5.42229e+006,288.49,0.8,0.8,0.8
496383,5.42204e+006,300.63,0.8,0.8,0.8
496971,5.42148e+006,292.77,0.8,0.8,0.8
496868,5.42157e+006,285.14,0.8,0.8,0.8
496629,5.42197e+006,296.32,0.8,0.8,0.8
496411,5.42159e+006,296.46,0.8,0.8,0.8
497030,5.42212e+006,283.48,0.8,0.8,0.8
496703,5.42209e+006,289.33,0.8,0.8,0.8
496887,5.42136e+006,297.08,0.8,0.8,0.8
496720,5.42153e+006,278.11,0.8,0.8,0.8
496810,5.42152e+006,298.48,0.8,0.8,0.8
496472,5.42196e+006,301.99,0.8,0.8,0.8
496311,5.42213e+006,298.53,0.8,0.8,0.8
496730,5.42137e+006,282.78,0.8,0.8,0.8
496047,5.42165e+006,308.03,0.8,0.8,0.8
496821,5.42162e+006,878.15,0.8,0.8,0.8
496162,5.42219e+006,301.21,0.8,0.8,0.8
496725,5.42211e+006,288.6,0.8,0.8,0.8
496997,5.42151e+006,293.78,0.8,0.8,0.8
497041,5.42214e+006,284.48,0.8,0.8,0.8
496978,5.42142e+006,291.3,0.8,0.8,0.8
496677,5.42169e+006,298.4,0.8,0.8,0.8
495958,5.42228e+006,320.92,0.8,0.8,0.8
496765,5.42159e+006,281.01,0.8,0.8,0.8
496759,5.42195e+006,293.31,0.8,0.8,0.8
496117,5.42226e+006,303.33,0.8,0.8,0.8
497061,5.4216e+006,301.81,0.8,0.8,0.8
496982,5.42196e+006,279,0.8,0.8,0.8
497046,5.42179e+006,281.84,0.8,0.8,0.8
497144,5.42157e+006,302.01,0.8,0.8,0.8
496138,5.42161e+006,303.82,0.8,0.8,0.8
496097,5.4223e+006,304.55,0.8,0.8,0.8
496610,5.42141e+006,278.56,0.8,0.8,0.8
496615,5.4218e+006,296.3,0.8,0.8,0.8
496658,5.42138e+006,274.07,0.8,0.8,0.8
497037,5.42227e+006,289.22,0.8,0.8,0.8
496464,5.4217e+006,295.06,0.8,0.8,0.8
496682,5.42196e+006,300.1,0.8,0.8,0.8
496040,5.4216e+006,306.1,0.8,0.8,0.8
496431,5.42202e+006,299.95,0.8,0.8,0.8
495986,5.42161e+006,308.25,0.8,0.8,0.8
496479,5.42216e+006,300.65,0.8,0.8,0.8
496980,5.42163e+006,297.61,0.8,0.8,0.8
496468,5.42203e+006,299.48,0.8,0.8,0.8
496652,5.42209e+006,291.16,0.8,0.8,0.8
496685,5.42165e+006,279.5,0.8,0.8,0.8
496967,5.42161e+006,303.2,0.8,0.8,0.8
496470,5.42211e+006,295.98,0.8,0.8,0.8
496944,5.42161e+006,302.37,0.8,0.8,0.8
496135,5.42223e+006,302.33,0.8,0.8,0.8
496972,5.4214e+006,290.85,0.8,0.8,0.8
495963,5.42223e+006,317.9,0.8,0.8,0.8
496058,5.42204e+006,307.08,0.8,0.8,0.8
496588,5.42138e+006,279.74,0.8,0.8,0.8
495973,5.42207e+006,304.99,0.8,0.8,0.8
496748,5.42169e+006,286.57,0.8,0.8,0.8
496518,5.42165e+006,289.96,0.8,0.8,0.8
497091,5.4216e+006,301.57,0.8,0.8,0.8
496721,5.42225e+006,293.44,0.8,0.8,0.8
496387,5.42204e+006,300.57,0.8,0.8,0.8
496894,5.42159e+006,315.68,0.8,0.8,0.8
496646,5.42151e+006,281.06,0.8,0.8,0.8
496985,5.42174e+006,282.02,0.8,0.8,0.8
496492,5.42169e+006,317.76,0.8,0.8,0.8
496276,5.42213e+006,299.12,0.8,0.8,0.8
496565,5.42172e+006,288.6,0.8,0.8,0.8
497162,5.42152e+006,301.98,0.8,0.8,0.8
496574,5.42225e+006,295.96,0.8,0.8,0.8
496911,5.42224e+006,290.78,0.8,0.8,0.8
496886,5.4217e+006,297.27,0.8,0.8,0.8
497145,5.42198e+006,275.96,0.8,0.8,0.8
495960,5.42156e+006,877.95,0.8,0.8,0.8
496726,5.42149e+006,289.18,0.8,0.8,0.8
496647,5.42158e+006,275.96,0.8,0.8,0.8
497104,5.42158e+006,840.43,0.8,0.8,0.8
496033,5.42169e+006,334.25,0.8,0.8,0.8
496778,5.42211e+006,288.32,0.8,0.8,0.8
496444,5.42222e+006,302.17,0.8,0.8,0.8
496607,5.42226e+006,295.81,0.8,0.8,0.8
497023,5.42202e+006,277.89,0.8,0.8,0.8
496287,5.42223e+006,306.37,0.8,0.8,0.8
497004,5.42148e+006,293.24,0.8,0.8,0.8
496669,5.42166e+006,280.2,0.8,0.8,0.8
496893,5.42203e+006,280.9,0.8,0.8,0.8
496983,5.4222e+006,288.49,0.8,0.8,0.8
496497,5.42215e+006,299.53,0.8,0.8,0.8
497088,5.42154e+006,297.17,0.8,0.8,0.8
496984,5.42208e+006,281.59,0.8,0.8,0.8
496849,5.42223e+006,290.82,0.8,0.8,0.8
496213,5.42198e+006,309.59,0.8,0.8,0.8
496891,5.42159e+006,289.25,0.8,0.8,0.8
496810,5.42219e+006,290.03,0.8,0.8,0.8
497167,5.42138e+006,328.15,0.8,0.8,0.8
497021,5.42168e+006,294.81,0.8,0.8,0.8
496643,5.42216e+006,292.83,0.8,0.8,0.8
496802,5.42166e+006,288.81,0.8,0.8,0.8
497013,5.42137e+006,286.62,0.8,0.8,0.8
496790,5.4214e+006,293.57,0.8,0.8,0.8
496731,5.42158e+006,280.07,0.8,0.8,0.8
497023,5.42155e+006,297.73,0.8,0.8,0.8
496816,5.42165e+006,330.73,0.8,0.8,0.8
496926,5.42197e+006,281.07,0.8,0.8,0.8
496845,5.42197e+006,286.52,0.8,0.8,0.8
497021,5.42149e+006,294.2,0.8,0.8,0.8
496818,5.42227e+006,292.97,0.8,0.8,0.8
496052,5.42218e+006,302.73,0.8,0.8,0.8
496502,5.42148e+006,291.99,0.8,0.8,0.8
496218,5.42227e+006,301.55,0.8,0.8,0.8
496049,5.42144e+006,276.07,0.8,0.8,0.8
496477,5.42202e+006,303.09,0.8,0.8,0.8
497020,5.42221e+006,288.13,0.8,0.8,0.8
496021,5.42212e+006,303.42,0.8,0.8,0.8
496348,5.42227e+006,296.19,0.8,0.8,0.8
496415,5.42204e+006,299.9,0.8,0.8,0.8
496304,5.42174e+006,305.53,0.8,0.8,0.8
495957,5.42135e+006,275.77,0.8,0.8,0.8
496502,5.42169e+006,291.14,0.8,0.8,0.8
496834,5.42197e+006,286.87,0.8,0.8,0.8
495987,5.42205e+006,306.08,0.8,0.8,0.8
496468,5.42175e+006,296.92,0.8,0.8,0.8
497164,5.42211e+006,278.61,0.8,0.8,0.8
496820,5.42213e+006,287.94,0.8,0.8,0.8
496199,5.42168e+006,303.97,0.8,0.8,0.8
496736,5.42146e+006,301.06,0.8,0.8,0.8
495968,5.42157e+006,881.67,0.8,0.8,0.8
496865,5.42229e+006,292.3,0.8,0.8,0.8
496688,5.42153e+006,274.26,0.8,0.8,0.8
496581,5.42212e+006,292.36,0.8,0.8,0.8
495969,5.42222e+006,308.19,0.8,0.8,0.8
495992,5.4214e+006,270.74,0.8,0.8,0.8
496449,5.42161e+006,295.52,0.8,0.8,0.8
496820,5.42211e+006,287.27,0.8,0.8,0.8
496982,5.42142e+006,291.4,0.8,0.8,0.8
496245,5.42198e+006,308.66,0.8,0.8,0.8
496730,5.42173e+006,290.58,0.8,0.8,0.8
496075,5.42157e+006,304.1,0.8,0.8,0.8
496449,5.42209e+006,296.4,0.8,0.8,0.8
497021,5.42211e+006,283.07,0.8,0.8,0.8
497005,5.42228e+006,289.83,0.8,0.8,0.8
496528,5.42141e+006,277.12,0.8,0.8,0.8
497089,5.42151e+006,297.69,0.8,0.8,0.8
496988,5.42172e+006,282.27,0.8,0.8,0.8
496993,5.42151e+006,294,0.8,0.8,0.8
496393,5.42223e+006,296.01,0.8,0.8,0.8
497078,5.42153e+006,297.11,0.8,0.8,0.8
496905,5.42156e+006,293.23,0.8,0.8,0.8
496601,5.4215e+006,279.74,0.8,0.8,0.8
496174,5.42199e+006,309.55,0.8,0.8,0.8
497078,5.42174e+006,290.87,0.8,0.8,0.8
496954,5.42155e+006,293.97,0.8,0.8,0.8
496677,5.42178e+006,294.28,0.8,0.8,0.8
496026,5.42171e+006,309.99,0.8,0.8,0.8
496312,5.42223e+006,306.54,0.8,0.8,0.8
497054,5.42222e+006,287.63,0.8,0.8,0.8
495967,5.42215e+006,302.11,0.8,0.8,0.8
496315,5.42194e+006,307.02,0.8,0.8,0.8
497010,5.42161e+006,875.03,0.8,0.8,0.8
496432,5.42151e+006,291.99,0.8,0.8,0.8
497061,5.42194e+006,276.62,0.8,0.8,0.8
496689,5.42135e+006,273.37,0.8,0.8,0.8
496880,5.42179e+006,291.11,0.8,0.8,0.8
496107,5.42142e+006,293.29,0.8,0.8,0.8
496113,5.42153e+006,300.61,0.8,0.8,0.8
497070,5.42226e+006,288.53,0.8,0.8,0.8
496505,5.42153e+006,291.06,0.8,0.8,0.8
496796,5.4221e+006,287.64,0.8,0.8,0.8
496892,5.42142e+006,313.26,0.8,0.8,0.8
497157,5.42213e+006,279.94,0.8,0.8,0.8
497074,5.42147e+006,318.34,0.8,0.8,0.8
496541,5.42148e+006,286.39,0.8,0.8,0.8
496024,5.42177e+006,314.02,0.8,0.8,0.8
496024,5.4223e+006,325.84,0.8,0.8,0.8
496674,5.4214e+006,288.58,0.8,0.8,0.8
496484,5.42226e+006,305.39,0.8,0.8,0.8
496935,5.42144e+006,303.52,0.8,0.8,0.8
496814,5.42141e+006,285.94,0.8,0.8,0.8
497179,5.42196e+006,279.46,0.8,0.8,0.8
496911,5.42162e+006,297.35,0.8,0.8,0.8
496787,5.42221e+006,291.26,0.8,0.8,0.8
497160,5.42147e+006,308.67,0.8,0.8,0.8
496771,5.42177e+006,300.61,0.8,0.8,0.8
496666,5.42214e+006,291.53,0.8,0.8,0.8
496052,5.42176e+006,312.21,0.8,0.8,0.8
497151,5.42197e+006,276.44,0.8,0.8,0.8
497116,5.42163e+006,301.12,0.8,0.8,0.8
496656,5.42145e+006,273.11,0.8,0.8,0.8
496947,5.42158e+006,882.35,0.8,0.8,0.8
496164,5.42215e+006,300.57,0.8,0.8,0.8
496098,5.42207e+006,304.41,0.8,0.8,0.8
497188,5.42145e+006,298.17,0.8,0.8,0.8
496725,5.42193e+006,295.44,0.8,0.8,0.8
496061,5.42178e+006,313.88,0.8,0.8,0.8
497101,5.42166e+006,309.09,0.8,0.8,0.8
496555,5.4223e+006,297.53,0.8,0.8,0.8
497032,5.42167e+006,307.16,0.8,0.8,0.8
497016,5.42227e+006,289.44,0.8,0.8,0.8
496120,5.42224e+006,302.78,0.8,0.8,0.8
497005,5.42156e+006,297.79,0.8,0.8,0.8
496066,5.42137e+006,273.31,0.8,0.8,0.8
496224,5.42136e+006,287.57,0.8,0.8,0.8
496915,5.42229e+006,292.1,0.8,0.8,0.8
496899,5.42151e+006,308.43,0.8,0.8,0.8
497039,5.4215e+006,327.43,0.8,0.8,0.8
496646,5.42168e+006,294.43,0.8,0.8,0.8
496865,5.42214e+006,287.37,0.8,0.8,0.8
496128,5.42223e+006,302.39,0.8,0.8,0.8
496403,5.42222e+006,303.79,0.8,0.8,0.8
496129,5.42169e+006,306.29,0.8,0.8,0.8
496740,5.42155e+006,276.77,0.8,0.8,0.8
496087,5.42155e+006,302.88,0.8,0.8,0.8
497111,5.42234e+006,288.71,0.8,0.8,0.8
497126,5.4217e+006,296.24,0.8,0.8,0.8
496478,5.42158e+006,293.8,0.8,0.8,0.8
497140,5.42157e+006,301.82,0.8,0.8,0.8
496894,5.42193e+006,284.16,0.8,0.8,0.8
496328,5.42176e+006,305.13,0.8,0.8,0.8
496735,5.42197e+006,294.64,0.8,0.8,0.8
496134,5.42176e+006,310.77,0.8,0.8,0.8
496620,5.4218e+006,296.43,0.8,0.8,0.8
497006,5.42218e+006,287.14,0.8,0.8,0.8
496667,5.42196e+006,301.81,0.8,0.8,0.8
496677,5.4214e+006,295.26,0.8,0.8,0.8
496732,5.42207e+006,289.29,0.8,0.8,0.8
496847,5.42173e+006,309.67,0.8,0.8,0.8
496858,5.42216e+006,287.96,0.8,0.8,0.8
496489,5.42203e+006,298.16,0.8,0.8,0.8
496860,5.42205e+006,281.94,0.8,0.8,0.8
496405,5.42145e+006,288.5,0.8,0.8,0.8
497108,5.42158e+006,300.62,0.8,0.8,0.8
496415,5.42207e+006,299.56,0.8,0.8,0.8
496200,5.42226e+006,301.77,0.8,0.8,0.8
496884,5.42208e+006,283.41,0.8,0.8,0.8
496881,5.42228e+006,292.05,0.8,0.8,0.8
496352,5.42161e+006,870.61,0.8,0.8,0.8
496451,5.42139e+006,280.5,0.8,0.8,0.8
496853,5.42157e+006,863.7,0.8,0.8,0.8
496174,5.42231e+006,302.87,0.8,0.8,0.8
496207,5.42211e+006,301.38,0.8,0.8,0.8
496548,5.42169e+006,288.32,0.8,0.8,0.8
496082,5.42152e+006,300.78,0.8,0.8,0.8
496298,5.42226e+006,295.6,0.8,0.8,0.8
496261,5.42153e+006,295.59,0.8,0.8,0.8
496010,5.4216e+006,854.95,0.8,0.8,0.8
495954,5.42199e+006,310.59,0.8,0.8,0.8
496039,5.42216e+006,302.87,0.8,0.8,0.8
496511,5.42141e+006,276.41,0.8,0.8,0.8
496739,5.42197e+006,294.49,0.8,0.8,0.8
496818,5.42151e+006,290.04,0.8,0.8,0.8
496857,5.42142e+006,293.21,0.8,0.8,0.8
497178,5.42173e+006,296.38,0.8,0.8,0.8
496040,5.42171e+006,309.8,0.8,0.8,0.8
495992,5.42219e+006,299.37,0.8,0.8,0.8
496786,5.42197e+006,290.65,0.8,0.8,0.8
496274,5.4215e+006,293.85,0.8,0.8,0.8
496121,5.42214e+006,301.53,0.8,0.8,0.8
497197,5.42145e+006,298.28,0.8,0.8,0.8
496284,5.42156e+006,871.43,0.8,0.8,0.8
497032,5.42205e+006,279.04,0.8,0.8,0.8
496005,5.42222e+006,312.1,0.8,0.8,0.8
495998,5.42192e+006,314.47,0.8,0.8,0.8
496061,5.42207e+006,304.77,0.8,0.8,0.8
496492,5.42167e+006,291.65,0.8,0.8,0.8
496288,5.42221e+006,303.51,0.8,0.8,0.8
496255,5.42207e+006,302.44,0.8,0.8,0.8
495998,5.42223e+006,319.71,0.8,0.8,0.8
495972,5.42147e+006,300.53,0.8,0.8,0.8
496019,5.42229e+006,327.38,0.8,0.8,0.8
496894,5.42175e+006,301.44,0.8,0.8,0.8
496398,5.42201e+006,301.72,0.8,0.8,0.8
496863,5.42208e+006,284.41,0.8,0.8,0.8
496683,5.42213e+006,290.7,0.8,0.8,0.8
496000,5.42228e+006,316.19,0.8,0.8,0.8
496250,5.42215e+006,299.28,0.8,0.8,0.8
496430,5.42201e+006,300.75,0.8,0.8,0.8
496616,5.422e+006,295.93,0.8,0.8,0.8
496487,5.42211e+006,296.67,0.8,0.8,0.8
496927,5.42144e+006,309.53,0.8,0.8,0.8
496046,5.42212e+006,302.9,0.8,0.8,0.8
496901,5.42227e+006,291.68,0.8,0.8,0.8
497167,5.42163e+006,305.73,0.8,0.8,0.8
497067,5.42166e+006,296.28,0.8,0.8,0.8
496894,5.42149e+006,312.85,0.8,0.8,0.8
496361,5.4214e+006,285.06,0.8,0.8,0.8
496067,5.42141e+006,274.04,0.8,0.8,0.8
496781,5.42207e+006,285.86,0.8,0.8,0.8
496528,5.42224e+006,303.72,0.8,0.8,0.8
496742,5.42225e+006,293.47,0.8,0.8,0.8
496879,5.42202e+006,281.83,0.8,0.8,0.8
496188,5.42163e+006,302.15,0.8,0.8,0.8
496135,5.4222e+006,303.69,0.8,0.8,0.8
496438,5.42178e+006,300.9,0.8,0.8,0.8
496678,5.4221e+006,289.83,0.8,0.8,0.8
496686,5.42141e+006,291.04,0.8,0.8,0.8
496487,5.42174e+006,294.37,0.8,0.8,0.8
496706,5.42201e+006,294.46,0.8,0.8,0.8
496799,5.42197e+006,289.58,0.8,0.8,0.8
497098,5.42158e+006,301.62,0.8,0.8,0.8
496322,5.42159e+006,298.09,0.8,0.8,0.8
496791,5.42158e+006,878.48,0.8,0.8,0.8
496448,5.42195e+006,302.89,0.8,0.8,0.8
496620,5.42215e+006,292.95,0.8,0.8,0.8
496901,5.4217e+006,297.43,0.8,0.8,0.8
496483,5.42215e+006,302.1,0.8,0.8,0.8
497063,5.42217e+006,285.79,0.8,0.8,0.8
496166,5.42139e+006,291.19,0.8,0.8,0.8
497142,5.42166e+006,299.97,0.8,0.8,0.8
496601,5.42215e+006,292.63,0.8,0.8,0.8
496026,5.42231e+006,310.74,0.8,0.8,0.8
496908,5.42154e+006,293.32,0.8,0.8,0.8
496027,5.42171e+006,309.91,0.8,0.8,0.8
496264,5.42198e+006,308.23,0.8,0.8,0.8
496862,5.42191e+006,285.18,0.8,0.8,0.8
496702,5.42178e+006,290.35,0.8,0.8,0.8
496789,5.42141e+006,293.79,0.8,0.8,0.8
497089,5.42179e+006,285.19,0.8,0.8,0.8
496537,5.4222e+006,295.34,0.8,0.8,0.8
496237,5.42213e+006,299.73,0.8,0.8,0.8
496312,5.42219e+006,299.06,0.8,0.8,0.8
497158,5.42214e+006,281.31,0.8,0.8,0.8
496472,5.4221e+006,296.58,0.8,0.8,0.8
496721,5.4222e+006,292.3,0.8,0.8,0.8
496401,5.42173e+006,300.39,0.8,0.8,0.8
496592,5.42168e+006,286.04,0.8,0.8,0.8
496595,5.42161e+006,284.74,0.8,0.8,0.8
496256,5.42216e+006,301.57,0.8,0.8,0.8
496750,5.4214e+006,290.17,0.8,0.8,0.8
496854,5.42161e+006,290.72,0.8,0.8,0.8
496230,5.42229e+006,301.31,0.8,0.8,0.8
496473,5.4217e+006,294.34,0.8,0.8,0.8
497068,5.42171e+006,294.9,0.8,0.8,0.8
497123,5.42173e+006,293.11,0.8,0.8,0.8
497138,5.42174e+006,302.99,0.8,0.8,0.8
495968,5.4221e+006,303.43,0.8,0.8,0.8
496894,5.42199e+006,282.17,0.8,0.8,0.8
496611,5.42192e+006,297,0.8,0.8,0.8
496656,5.42202e+006,295.77,0.8,0.8,0.8
496912,5.4217e+006,298.3,0.8,0.8,0.8
496368,5.42158e+006,297.3,0.8,0.8,0.8
496148,5.42202e+006,307.22,0.8,0.8,0.8
496474,5.42155e+006,293,0.8,0.8,0.8
496264,5.42173e+006,306.61,0.8,0.8,0.8
496017,5.42157e+006,304.35,0.8,0.8,0.8
496474,5.4221e+006,296.51,0.8,0.8,0.8
496529,5.42135e+006,270.39,0.8,0.8,0.8
496220,5.42194e+006,310.6,0.8,0.8,0.8
496391,5.42215e+006,295.73,0.8,0.8,0.8
496963,5.42207e+006,280.45,0.8,0.8,0.8
496418,5.42137e+006,279.01,0.8,0.8,0.8
496478,5.42156e+006,837.32,0.8,0.8,0.8
496686,5.4223e+006,298.3,0.8,0.8,0.8
497006,5.42172e+006,284.1,0.8,0.8,0.8
496412,5.42221e+006,303.58,0.8,0.8,0.8
496705,5.42148e+006,285.07,0.8,0.8,0.8
497004,5.42194e+006,278.28,0.8,0.8,0.8
496950,5.42148e+006,292.8,0.8,0.8,0.8
497084,5.42159e+006,299.96,0.8,0.8,0.8
497057,5.42146e+006,332.62,0.8,0.8,0.8
496160,5.42145e+006,295.16,0.8,0.8,0.8
495951,5.42203e+006,307.61,0.8,0.8,0.8
496972,5.42139e+006,290.54,0.8,0.8,0.8
496542,5.42208e+006,296.97,0.8,0.8,0.8
496556,5.42168e+006,309.71,0.8,0.8,0.8
496568,5.42198e+006,296.87,0.8,0.8,0.8
496044,5.42227e+006,319.74,0.8,0.8,0.8
496690,5.42147e+006,280.01,0.8,0.8,0.8
496250,5.42149e+006,295.26,0.8,0.8,0.8
496478,5.42168e+006,293.16,0.8,0.8,0.8
496382,5.42202e+006,301.48,0.8,0.8,0.8
496421,5.42168e+006,297.09,0.8,0.8,0.8
496332,5.4215e+006,292.59,0.8,0.8,0.8
497191,5.42155e+006,303.29,0.8,0.8,0.8
496238,5.42147e+006,293.8,0.8,0.8,0.8
497167,5.42208e+006,277.04,0.8,0.8,0.8
496471,5.42163e+006,294.83,0.8,0.8,0.8
497137,5.42178e+006,290.11,0.8,0.8,0.8
496868,5.4214e+006,305.88,0.8,0.8,0.8
496953,5.42194e+006,280.46,0.8,0.8,0.8
497012,5.42143e+006,292.25,0.8,0.8,0.8
496442,5.42155e+006,293.82,0.8,0.8,0.8
496652,5.42211e+006,290.36,0.8,0.8,0.8
497074,5.42196e+006,276.35,0.8,0.8,0.8
496349,5.42204e+006,301.65,0.8,0.8,0.8
496917,5.42192e+006,282.78,0.8,0.8,0.8
496744,5.42205e+006,289.33,0.8,0.8,0.8
496018,5.42224e+006,319.08,0.8,0.8,0.8
497058,5.42164e+006,305.28,0.8,0.8,0.8
497177,5.42155e+006,302.87,0.8,0.8,0.8
497199,5.42219e+006,284.07,0.8,0.8,0.8
496680,5.42232e+006,295.92,0.8,0.8,0.8
497091,5.42169e+006,294.99,0.8,0.8,0.8
496587,5.42142e+006,272.77,0.8,0.8,0.8
496052,5.42218e+006,302.56,0.8,0.8,0.8
496492,5.42214e+006,299.9,0.8,0.8,0.8
496640,5.42173e+006,291.11,0.8,0.8,0.8
496865,5.42142e+006,310.23,0.8,0.8,0.8
497063,5.42176e+006,285.37,0.8,0.8,0.8
496916,5.42177e+006,291.01,0.8,0.8,0.8
496090,5.42145e+006,296.82,0.8,0.8,0.8
496559,5.42197e+006,296.82,0.8,0.8,0.8
496274,5.42141e+006,289.25,0.8,0.8,0.8
497106,5.42218e+006,285.62,0.8,0.8,0.8
496263,5.42147e+006,293.62,0.8,0.8,0.8
496916,5.42213e+006,286,0.8,0.8,0.8
496821,5.4215e+006,288.24,0.8,0.8,0.8
495961,5.42227e+006,308.99,0.8,0.8,0.8
496536,5.42154e+006,290.71,0.8,0.8,0.8
496580,5.42171e+006,286.26,0.8,0.8,0.8
496087,5.4217e+006,307.74,0.8,0.8,0.8
496160,5.42194e+006,312.45,0.8,0.8,0.8
496289,5.4214e+006,288.41,0.8,0.8,0.8
495966,5.42141e+006,273.7,0.8,0.8,0.8
496578,5.42138e+006,270.36,0.8,0.8,0.8
496613,5.42207e+006,292.9,0.8,0.8,0.8
496456,5.42196e+006,302.37,0.8,0.8,0.8
496463,5.42163e+006,295.07,0.8,0.8,0.8
496436,5.42222e+006,300.94,0.8,0.8,0.8
496537,5.42143e+006,279.22,0.8,0.8,0.8
496116,5.4221e+006,302.98,0.8,0.8,0.8
496723,5.42138e+006,292.38,0.8,0.8,0.8
496160,5.42176e+006,310.41,0.8,0.8,0.8
496493,5.42145e+006,286.11,0.8,0.8,0.8
496694,5.42202e+006,294.87,0.8,0.8,0.8
497069,5.4215e+006,297.13,0.8,0.8,0.8
496967,5.42192e+006,279.57,0.8,0.8,0.8
496429,5.4216e+006,296,0.8,0.8,0.8
496928,5.42205e+006,279.91,0.8,0.8,0.8
496358,5.4222e+006,296.42,0.8,0.8,0.8
496672,5.42233e+006,296.17,0.8,0.8,0.8
496933,5.42232e+006,292.32,0.8,0.8,0.8
496660,5.42217e+006,292.65,0.8,0.8,0.8
496466,5.42147e+006,306.37,0.8,0.8,0.8
496051,5.42171e+006,309.43,0.8,0.8,0.8
497063,5.42192e+006,276.16,0.8,0.8,0.8
496864,5.4214e+006,292.27,0.8,0.8,0.8
496181,5.4216e+006,301.03,0.8,0.8,0.8
496918,5.42137e+006,298.06,0.8,0.8,0.8
496577,5.42209e+006,293.38,0.8,0.8,0.8
497004,5.42198e+006,277.81,0.8,0.8,0.8
496710,5.42196e+006,296.15,0.8,0.8,0.8
496646,5.42169e+006,287.8,0.8,0.8,0.8
496803,5.42171e+006,289.89,0.8,0.8,0.8
496972,5.42199e+006,278.89,0.8,0.8,0.8
497115,5.42145e+006,298.13,0.8,0.8,0.8
496630,5.42215e+006,292.52,0.8,0.8,0.8
496085,5.42139e+006,285.1,0.8,0.8,0.8
496753,5.42222e+006,292.23,0.8,0.8,0.8
496071,5.42226e+006,304.11,0.8,0.8,0.8
496577,5.42202e+006,296.25,0.8,0.8,0.8
496896,5.42202e+006,280.92,0.8,0.8,0.8
496710,5.42148e+006,291.88,0.8,0.8,0.8
496383,5.42223e+006,306.97,0.8,0.8,0.8
496697,5.42228e+006,294.78,0.8,0.8,0.8
497001,5.42162e+006,301.44,0.8,0.8,0.8
496822,5.42144e+006,285.65,0.8,0.8,0.8
496484,5.42154e+006,292.33,0.8,0.8,0.8
496875,5.4223e+006,292.86,0.8,0.8,0.8
496744,5.42144e+006,290.53,0.8,0.8,0.8
496616,5.42207e+006,292.96,0.8,0.8,0.8
496437,5.42165e+006,296.07,0.8,0.8,0.8
496829,5.42141e+006,292.51,0.8,0.8,0.8
496961,5.42179e+006,279.49,0.8,0.8,0.8
496045,5.42194e+006,313.86,0.8,0.8,0.8
496782,5.42146e+006,313.95,0.8,0.8,0.8
496769,5.42205e+006,287.49,0.8,0.8,0.8
495950,5.4222e+006,311.49,0.8,0.8,0.8
496722,5.4215e+006,289.22,0.8,0.8,0.8
497051,5.42221e+006,287.31,0.8,0.8,0.8
496929,5.42208e+006,282.52,0.8,0.8,0.8
496358,5.42202e+006,302.14,0.8,0.8,0.8
496307,5.42221e+006,300.52,0.8,0.8,0.8
497081,5.42197e+006,276.15,0.8,0.8,0.8
496420,5.42165e+006,297.12,0.8,0.8,0.8
496465,5.42169e+006,311.6,0.8,0.8,0.8
496144,5.42215e+006,300.96,0.8,0.8,0.8
496141,5.42148e+006,297.2,0.8,0.8,0.8
496370,5.42171e+006,301.18,0.8,0.8,0.8
497103,5.42146e+006,297.91,0.8,0.8,0.8
496029,5.42169e+006,328.35,0.8,0.8,0.8
496560,5.42161e+006,288.49,0.8,0.8,0.8
496700,5.4217e+006,298.98,0.8,0.8,0.8
496745,5.42213e+006,289.52,0.8,0.8,0.8
496873,5.42193e+006,285.02,0.8,0.8,0.8
496192,5.42208e+006,302.77,0.8,0.8,0.8
496265,5.4222e+006,299.55,0.8,0.8,0.8
496090,5.42177e+006,312.49,0.8,0.8,0.8
495962,5.42173e+006,312.32,0.8,0.8,0.8
496036,5.42213e+006,303.05,0.8,0.8,0.8
496783,5.42221e+006,291.33,0.8,0.8,0.8
496976,5.42224e+006,289.66,0.8,0.8,0.8
496897,5.42161e+006,293.03,0.8,0.8,0.8
496844,5.42136e+006,288.54,0.8,0.8,0.8
497025,5.42221e+006,287.84,0.8,0.8,0.8
497066,5.42209e+006,280.55,0.8,0.8,0.8
496341,5.42178e+006,305.06,0.8,0.8,0.8
497199,5.42159e+006,303.86,0.8,0.8,0.8
496939,5.4221e+006,283.73,0.8,0.8,0.8
496640,5.42177e+006,293.82,0.8,0.8,0.8
496925,5.42211e+006,284.38,0.8,0.8,0.8
496906,5.42198e+006,281.88,0.8,0.8,0.8
496554,5.42201e+006,296.56,0.8,0.8,0.8
496530,5.42198e+006,299.73,0.8,0.8,0.8
496368,5.42164e+006,299.09,0.8,0.8,0.8
496077,5.42199e+006,310.84,0.8,0.8,0.8
496764,5.42197e+006,292.76,0.8,0.8,0.8
496918,5.42155e+006,293.58,0.8,0.8,0.8
496368,5.42169e+006,332.49,0.8,0.8,0.8
496084,5.42219e+006,302.26,0.8,0.8,0.8
496151,5.42218e+006,300.99,0.8,0.8,0.8
496702,5.42229e+006,298.11,0.8,0.8,0.8
496196,5.42195e+006,311.23,0.8,0.8,0.8
496756,5.42206e+006,288.01,0.8,0.8,0.8
496034,5.42197e+006,312.36,0.8,0.8,0.8
497124,5.42205e+006,277.17,0.8,0.8,0.8
497010,5.42143e+006,292.18,0.8,0.8,0.8
497074,5.42205e+006,278.3,0.8,0.8,0.8
496365,5.42209e+006,299.26,0.8,0.8,0.8
496416,5.42215e+006,296.45,0.8,0.8,0.8
496352,5.42199e+006,303.93,0.8,0.8,0.8
496244,5.42169e+006,304.64,0.8,0.8,0.8
496300,5.42171e+006,304.36,0.8,0.8,0.8
496042,5.42231e+006,325.84,0.8,0.8,0.8
497199,5.42223e+006,286.17,0.8,0.8,0.8
496212,5.42174e+006,307.9,0.8,0.8,0.8
496055,5.42138e+006,273.34,0.8,0.8,0.8
495990,5.4217e+006,310.29,0.8,0.8,0.8
496629,5.42226e+006,295.29,0.8,0.8,0.8
497012,5.42151e+006,329.15,0.8,0.8,0.8
496518,5.42228e+006,299.65,0.8,0.8,0.8
496901,5.42147e+006,309.76,0.8,0.8,0.8
496640,5.42169e+006,321.03,0.8,0.8,0.8
496321,5.42138e+006,285.82,0.8,0.8,0.8
496899,5.42146e+006,287.88,0.8,0.8,0.8
497068,5.42219e+006,286.5,0.8,0.8,0.8
496201,5.42197e+006,310.91,0.8,0.8,0.8
496212,5.42226e+006,301.55,0.8,0.8,0.8
497025,5.42213e+006,284.71,0.8,0.8,0.8
496592,5.42171e+006,288.62,0.8,0.8,0.8
496348,5.42163e+006,299.36,0.8,0.8,0.8
496540,5.42232e+006,297.74,0.8,0.8,0.8
496478,5.42213e+006,296.52,0.8,0.8,0.8
496545,5.42167e+006,288.04,0.8,0.8,0.8
497182,5.4215e+006,302.31,0.8,0.8,0.8
496226,5.42173e+006,307.22,0.8,0.8,0.8
496969,5.42229e+006,291.15,0.8,0.8,0.8
496387,5.42154e+006,294.34,0.8,0.8,0.8
496242,5.42146e+006,293.61,0.8,0.8,0.8
496540,5.4216e+006,290.26,0.8,0.8,0.8
497026,5.42222e+006,288.1,0.8,0.8,0.8
496220,5.42161e+006,299.88,0.8,0.8,0.8
496525,5.42169e+006,309.78,0.8,0.8,0.8
496247,5.4221e+006,301.12,0.8,0.8,0.8
496051,5.42141e+006,273.09,0.8,0.8,0.8
496586,5.42139e+006,274.84,0.8,0.8,0.8
496807,5.42222e+006,291.28,0.8,0.8,0.8
496767,5.42213e+006,289.25,0.8,0.8,0.8
496479,5.42226e+006,305.64,0.8,0.8,0.8
496968,5.42138e+006,290.08,0.8,0.8,0.8
497097,5.42206e+006,277.97,0.8,0.8,0.8
497173,5.42178e+006,291.07,0.8,0.8,0.8
496463,5.42216e+006,298.62,0.8,0.8,0.8
496337,5.42169e+006,323.36,0.8,0.8,0.8
496987,5.42146e+006,292.39,0.8,0.8,0.8
497041,5.422e+006,277.49,0.8,0.8,0.8
496766,5.42156e+006,283.6,0.8,0.8,0.8
496292,5.42158e+006,298.22,0.8,0.8,0.8
496659,5.4215e+006,271.33,0.8,0.8,0.8
497013,5.42162e+006,298.2,0.8,0.8,0.8
496931,5.42206e+006,280.22,0.8,0.8,0.8
496958,5.42155e+006,293.88,0.8,0.8,0.8
496155,5.42212e+006,301.24,0.8,0.8,0.8
495983,5.42212e+006,303.08,0.8,0.8,0.8
496392,5.42147e+006,289.7,0.8,0.8,0.8
496696,5.4221e+006,289.03,0.8,0.8,0.8
497035,5.42229e+006,290.02,0.8,0.8,0.8
496628,5.42209e+006,291.77,0.8,0.8,0.8
496218,5.42214e+006,299.72,0.8,0.8,0.8
497064,5.4216e+006,304.61,0.8,0.8,0.8
496619,5.42151e+006,277.35,0.8,0.8,0.8
496641,5.42213e+006,291.51,0.8,0.8,0.8
497004,5.42158e+006,879.97,0.8,0.8,0.8
497117,5.42194e+006,275.25,0.8,0.8,0.8
496145,5.42172e+006,307.81,0.8,0.8,0.8
496620,5.42201e+006,299.48,0.8,0.8,0.8
496827,5.42233e+006,294.51,0.8,0.8,0.8
496074,5.42209e+006,303.76,0.8,0.8,0.8
496188,5.42169e+006,305.27,0.8,0.8,0.8
495975,5.42158e+006,305.81,0.8,0.8,0.8
496617,5.42157e+006,281.84,0.8,0.8,0.8
496510,5.42224e+006,304.04,0.8,0.8,0.8
496033,5.4215e+006,299.35,0.8,0.8,0.8
496780,5.42147e+006,293.48,0.8,0.8,0.8
496345,5.42178e+006,304.89,0.8,0.8,0.8
496882,5.42162e+006,322.68,0.8,0.8,0.8
496354,5.42161e+006,298.44,0.8,0.8,0.8
497044,5.42154e+006,297.08,0.8,0.8,0.8
496963,5.42218e+006,287.99,0.8,0.8,0.8
496810,5.42228e+006,293.15,0.8,0.8,0.8
496856,5.42152e+006,304.31,0.8,0.8,0.8
497059,5.42146e+006,293.61,0.8,0.8,0.8
497144,5.42216e+006,283.63,0.8,0.8,0.8
496571,5.42168e+006,319.97,0.8,0.8,0.8
496934,5.42194e+006,281.41,0.8,0.8,0.8
497039,5.42174e+006,285.63,0.8,0.8,0.8
496440,5.42204e+006,300.14,0.8,0.8,0.8
496751,5.4214e+006,289.82,0.8,0.8,0.8
496506,5.4222e+006,302.59,0.8,0.8,0.8
496231,5.42205e+006,304.82,0.8,0.8,0.8
496624,5.42166e+006,296.75,0.8,0.8,0.8
496718,5.42224e+006,293.19,0.8,0.8,0.8
496646,5.4215e+006,279.52,0.8,0.8,0.8
495990,5.42142e+006,273.1,0.8,0.8,0.8
496688,5.42144e+006,300.29,0.8,0.8,0.8
496508,5.42209e+006,296.09,0.8,0.8,0.8
495977,5.42218e+006,298.88,0.8,0.8,0.8
496573,5.42215e+006,293.03,0.8,0.8,0.8
496055,5.42206e+006,305.16,0.8,0.8,0.8
496829,5.42157e+006,281.74,0.8,0.8,0.8
496604,5.42147e+006,276.54,0.8,0.8,0.8
496576,5.42161e+006,287.15,0.8,0.8,0.8
497141,5.42168e+006,298.3,0.8,0.8,0.8
496366,5.42179e+006,304.38,0.8,0.8,0.8
496596,5.42179e+006,295.75,0.8,0.8,0.8
496871,5.422e+006,283,0.8,0.8,0.8
496502,5.42228e+006,297.78,0.8,0.8,0.8
496722,5.42173e+006,290.39,0.8,0.8,0.8
496430,5.4223e+006,298.6,0.8,0.8,0.8
496255,5.42193e+006,309.65,0.8,0.8,0.8
496459,5.42179e+006,299.61,0.8,0.8,0.8
496305,5.42151e+006,293.49,0.8,0.8,0.8
495962,5.42207e+006,304.98,0.8,0.8,0.8
496649,5.42156e+006,275.09,0.8,0.8,0.8
496846,5.42192e+006,286.53,0.8,0.8,0.8
496836,5.42139e+006,301.59,0.8,0.8,0.8
496829,5.42143e+006,292.82,0.8,0.8,0.8
496810,5.42199e+006,287.29,0.8,0.8,0.8
496007,5.42226e+006,325.94,0.8,0.8,0.8
497167,5.42145e+006,297.33,0.8,0.8,0.8
496520,5.42195e+006,303.8,0.8,0.8,0.8
496401,5.42204e+006,300.35,0.8,0.8,0.8
496956,5.42143e+006,291.3,0.8,0.8,0.8
496027,5.42221e+006,310.91,0.8,0.8,0.8
496530,5.42222e+006,297.2,0.8,0.8,0.8
496698,5.42196e+006,296.81,0.8,0.8,0.8
496535,5.42169e+006,316.82,0.8,0.8,0.8
496352,5.42193e+006,305.9,0.8,0.8,0.8
496852,5.42151e+006,298.03,0.8,0.8,0.8
495964,5.42219e+006,298.86,0.8,0.8,0.8
496706,5.42161e+006,281.13,0.8,0.8,0.8
496246,5.42216e+006,300.72,0.8,0.8,0.8
496729,5.42147e+006,294.42,0.8,0.8,0.8
496639,5.4217e+006,288.49,0.8,0.8,0.8
496945,5.42208e+006,281.74,0.8,0.8,0.8
496797,5.4221e+006,287.69,0.8,0.8,0.8
496735,5.42149e+006,288.49,0.8,0.8,0.8
496298,5.42193e+006,307.97,0.8,0.8,0.8
497071,5.42196e+006,276.45,0.8,0.8,0.8
496265,5.42198e+006,307.91,0.8,0.8,0.8
495986,5.42173e+006,312.13,0.8,0.8,0.8
496341,5.42222e+006,307.11,0.8,0.8,0.8
496983,5.42153e+006,293.81,0.8,0.8,0.8
496556,5.42159e+006,289.24,0.8,0.8,0.8
496744,5.42205e+006,289.52,0.8,0.8,0.8
497168,5.42161e+006,300.18,0.8,0.8,0.8
496799,5.42157e+006,291.47,0.8,0.8,0.8
496348,5.42217e+006,302.46,0.8,0.8,0.8
495994,5.42161e+006,307.97,0.8,0.8,0.8
496314,5.42215e+006,298.83,0.8,0.8,0.8
496582,5.42141e+006,271.22,0.8,0.8,0.8
496925,5.42173e+006,296.55,0.8,0.8,0.8
496639,5.42157e+006,276.95,0.8,0.8,0.8
496421,5.42211e+006,297.32,0.8,0.8,0.8
496078,5.42203e+006,307.5,0.8,0.8,0.8
496559,5.42166e+006,287,0.8,0.8,0.8
496674,5.4222e+006,293.01,0.8,0.8,0.8
497006,5.42219e+006,287.6,0.8,0.8,0.8
496867,5.42148e+006,291.67,0.8,0.8,0.8
497120,5.42169e+006,296.23,0.8,0.8,0.8
496533,5.42157e+006,291.02,0.8,0.8,0.8
496944,5.42142e+006,295.96,0.8,0.8,0.8
497176,5.42206e+006,275.45,0.8,0.8,0.8
496948,5.42228e+006,291.3,0.8,0.8,0.8
497115,5.42205e+006,277.38,0.8,0.8,0.8
496773,5.42233e+006,295.01,0.8,0.8,0.8
496774,5.42177e+006,297.26,0.8,0.8,0.8
496409,5.42154e+006,294.34,0.8,0.8,0.8
496500,5.422e+006,303.92,0.8,0.8,0.8
496642,5.42222e+006,294.06,0.8,0.8,0.8
496936,5.42229e+006,291.76,0.8,0.8,0.8
496656,5.42143e+006,272.72,0.8,0.8,0.8
497135,5.42146e+006,297.59,0.8,0.8,0.8
496186,5.42203e+006,306.97,0.8,0.8,0.8
496555,5.42216e+006,293.89,0.8,0.8,0.8
496054,5.4216e+006,305.8,0.8,0.8,0.8
496303,5.42217e+006,299.59,0.8,0.8,0.8
497074,5.42232e+006,289.24,0.8,0.8,0.8
496118,5.42148e+006,297.29,0.8,0.8,0.8
497064,5.42158e+006,306.01,0.8,0.8,0.8
496258,5.42157e+006,297.73,0.8,0.8,0.8
496131,5.4214e+006,292.84,0.8,0.8,0.8
496192,5.42195e+006,311.43,0.8,0.8,0.8
496130,5.4214e+006,292.49,0.8,0.8,0.8
496911,5.42219e+006,288.55,0.8,0.8,0.8
496964,5.42152e+006,293.68,0.8,0.8,0.8
497066,5.42201e+006,277.2,0.8,0.8,0.8
496476,5.42147e+006,314.64,0.8,0.8,0.8
496624,5.422e+006,301.8,0.8,0.8,0.8
496871,5.42138e+006,302.97,0.8,0.8,0.8
496369,5.42206e+006,300.33,0.8,0.8,0.8
497088,5.42158e+006,300.23,0.8,0.8,0.8
496940,5.42171e+006,302.68,0.8,0.8,0.8
496958,5.42137e+006,297.15,0.8,0.8,0.8
496280,5.42198e+006,307.45,0.8,0.8,0.8
496343,5.42197e+006,305.01,0.8,0.8,0.8
496011,5.42228e+006,316.07,0.8,0.8,0.8
496462,5.42218e+006,300.61,0.8,0.8,0.8
496006,5.42222e+006,319.45,0.8,0.8,0.8
497018,5.42173e+006,284.75,0.8,0.8,0.8
496489,5.42169e+006,292.26,0.8,0.8,0.8
496471,5.42141e+006,281.64,0.8,0.8,0.8
496290,5.42199e+006,306.64,0.8,0.8,0.8
496602,5.42176e+006,293.64,0.8,0.8,0.8
495979,5.42218e+006,299.18,0.8,0.8,0.8
497042,5.42143e+006,293.92,0.8,0.8,0.8
496512,5.42157e+006,292.35,0.8,0.8,0.8
496781,5.42202e+006,288.36,0.8,0.8,0.8
497081,5.42173e+006,291.65,0.8,0.8,0.8
496805,5.42157e+006,292.25,0.8,0.8,0.8
496062,5.42161e+006,305.95,0.8,0.8,0.8
496575,5.4222e+006,294.98,0.8,0.8,0.8
496257,5.42222e+006,306.23,0.8,0.8,0.8
496037,5.42226e+006,315.31,0.8,0.8,0.8
496501,5.4221e+006,296.5,0.8,0.8,0.8
496311,5.42196e+006,306.76,0.8,0.8,0.8
496174,5.42139e+006,290.64,0.8,0.8,0.8
496110,5.42139e+006,292.05,0.8,0.8,0.8
496977,5.42143e+006,295.5,0.8,0.8,0.8
496845,5.42163e+006,329.3,0.8,0.8,0.8
496449,5.42137e+006,277.09,0.8,0.8,0.8
496798,5.42145e+006,301.8,0.8,0.8,0.8
496164,5.42153e+006,299.32,0.8,0.8,0.8
496180,5.42169e+006,304.85,0.8,0.8,0.8
496075,5.4223e+006,304.93,0.8,0.8,0.8
496287,5.42168e+006,303.3,0.8,0.8,0.8
496336,5.42138e+006,284.61,0.8,0.8,0.8
496054,5.42139e+006,271.54,0.8,0.8,0.8
496097,5.42215e+006,301.97,0.8,0.8,0.8
496329,5.42167e+006,301.71,0.8,0.8,0.8
496694,5.42136e+006,273.42,0.8,0.8,0.8
497144,5.4223e+006,288.17,0.8,0.8,0.8
496156,5.42221e+006,304.25,0.8,0.8,0.8
496032,5.42195e+006,313.63,0.8,0.8,0.8
496831,5.42229e+006,292.86,0.8,0.8,0.8
496521,5.42214e+006,295.36,0.8,0.8,0.8
496721,5.42151e+006,277.06,0.8,0.8,0.8
495992,5.42222e+006,321.2,0.8,0.8,0.8
496923,5.4215e+006,292.84,0.8,0.8,0.8
496694,5.42148e+006,281.1,0.8,0.8,0.8
496913,5.42191e+006,282.41,0.8,0.8,0.8
496551,5.42217e+006,294.03,0.8,0.8,0.8
496711,5.42179e+006,291.14,0.8,0.8,0.8
496591,5.42168e+006,286.04,0.8,0.8,0.8
496022,5.4222e+006,299.91,0.8,0.8,0.8
496318,5.42231e+006,302.62,0.8,0.8,0.8
496131,5.42178e+006,312.03,0.8,0.8,0.8
496383,5.42174e+006,301.65,0.8,0.8,0.8
496471,5.42217e+006,300.82,0.8,0.8,0.8
496516,5.42216e+006,294.52,0.8,0.8,0.8
496977,5.42215e+006,286.5,0.8,0.8,0.8
497097,5.42164e+006,299.02,0.8,0.8,0.8
497155,5.42174e+006,294.4,0.8,0.8,0.8
496725,5.42148e+006,289.75,0.8,0.8,0.8
496516,5.42232e+006,298.12,0.8,0.8,0.8
