x,y,z,r,g,b
496460.375000,5421457.000000,287.190002,0.8,0.8,0.8
496538.531250,5421732.000000,290.760010,0.8,0.8,0.8
496235.218750,5421505.500000,296.019989,0.8,0.8,0.8
496844.062500,5422223.500000,290.630005,0.8,0.8,0.8
496508.875000,5421448.000000,283.880005,0.8,0.8,0.8
497194.687500,5422068.500000,276.529999,0.8,0.8,0.8
496171.406250,5421923.500000,312.570007,0.8,0.8,0.8
496902.562500,5422186.500000,288.589996,0.8,0.8,0.8
495963.093750,5421541.000000,304.500000,0.8,0.8,0.8
496843.468750,5421371.000000,287.440002,0.8,0.8,0.8
496872.218750,5422149.500000,287.619995,0.8,0.8,0.8
496261.156250,5421765.000000,307.920013,0.8,0.8,0.8
497191.375000,5421680.500000,299.170013,0.8,0.8,0.8
496611.531250,5421536.000000,281.480011,0.8,0.8,0.8
495965.187500,5421928.500000,314.500000,0.8,0.8,0.8
496648.218750,5421958.000000,297.019989,0.8,0.8,0.8
497193.750000,5421730.500000,296.540009,0.8,0.8,0.8
496967.656250,5422104.000000,283.369995,0.8,0.8,0.8
496987.843750,5422023.000000,278.589996,0.8,0.8,0.8
496601.937500,5421634.000000,284.019989,0.8,0.8,0.8
495982.218750,5421603.000000,881.359985,0.8,0.8,0.8
496762.968750,5421989.500000,291.910004,0.8,0.8,0.8
497076.531250,5421987.500000,276.790009,0.8,0.8,0.8
497182.250000,5421573.000000,303.299988,0.8,0.8,0.8
496944.156250,5422049.500000,280.000000,0.8,0.8,0.8
496569.968750,5421516.000000,286.390015,0.8,0.8,0.8
497091.093750,5421743.500000,290.869995,0.8,0.8,0.8
496675.625000,5421419.000000,280.519989,0.8,0.8,0.8
496981.375000,5421608.500000,887.059998,0.8,0.8,0.8
496613.093750,5421695.500000,317.760010,0.8,0.8,0.8
496001.687500,5422048.500000,306.299988,0.8,0.8,0.8
497090.593750,5421458.500000,294.119995,0.8,0.8,0.8
496858.968750,5421728.000000,297.079987,0.8,0.8,0.8
496575.500000,5421447.000000,278.140015,0.8,0.8,0.8
496855.343750,5421393.500000,308.160004,0.8,0.8,0.8
496283.468750,5422211.000000,303.910004,0.8,0.8,0.8
496461.500000,5422060.000000,298.170013,0.8,0.8,0.8
496031.406250,5421705.500000,309.880005,0.8,0.8,0.8
496198.750000,5421783.000000,311.070007,0.8,0.8,0.8
497185.750000,5421739.500000,306.160004,0.8,0.8,0.8
496623.750000,5421377.000000,271.029999,0.8,0.8,0.8
496668.062500,5421981.500000,297.429993,0.8,0.8,0.8
496138.906250,5421779.000000,311.799988,0.8,0.8,0.8
497030.312500,5421437.500000,292.670013,0.8,0.8,0.8
496515.468750,5421932.000000,300.799988,0.8,0.8,0.8
496120.656250,5421726.500000,308.579987,0.8,0.8,0.8
496483.218750,5422259.500000,305.549988,0.8,0.8,0.8
496877.625000,5421407.500000,293.109985,0.8,0.8,0.8
497119.781250,5422066.000000,277.429993,0.8,0.8,0.8
496073.156250,5421504.500000,299.470001,0.8,0.8,0.8
496897.312500,5421791.500000,288.429993,0.8,0.8,0.8
497080.125000,5422151.500000,284.149994,0.8,0.8,0.8
496406.562500,5422329.500000,301.630005,0.8,0.8,0.8
496730.625000,5421478.500000,293.260010,0.8,0.8,0.8
496681.468750,5422234.500000,293.779999,0.8,0.8,0.8
496421.562500,5421578.500000,295.720001,0.8,0.8,0.8
496151.250000,5421676.500000,332.500000,0.8,0.8,0.8
497072.187500,5421938.500000,276.049988,0.8,0.8,0.8
496334.562500,5421453.000000,290.029999,0.8,0.8,0.8
496313.093750,5422310.000000,298.549988,0.8,0.8,0.8
496990.000000,5421437.500000,291.690002,0.8,0.8,0.8
496634.375000,5421559.500000,277.260010,0.8,0.8,0.8
495977.562500,5422081.500000,304.899994,0.8,0.8,0.8
496055.031250,5421424.500000,272.410004,0.8,0.8,0.8
496643.406250,5421433.500000,273.910004,0.8,0.8,0.8
496050.937500,5421713.000000,309.730011,0.8,0.8,0.8
496672.468750,5421449.500000,285.549988,0.8,0.8,0.8
496463.500000,5421583.000000,868.940002,0.8,0.8,0.8
495956.125000,5421932.500000,314.410004,0.8,0.8,0.8
496261.343750,5421744.000000,307.309998,0.8,0.8,0.8
497179.562500,5421772.000000,301.829987,0.8,0.8,0.8
496625.093750,5421415.500000,273.649994,0.8,0.8,0.8
497157.875000,5422045.500000,279.869995,0.8,0.8,0.8
496455.062500,5421425.000000,284.029999,0.8,0.8,0.8
496179.093750,5421433.000000,293.619995,0.8,0.8,0.8
496541.937500,5421950.500000,300.829987,0.8,0.8,0.8
495954.687500,5421514.000000,303.399994,0.8,0.8,0.8
496073.000000,5421733.500000,310.390015,0.8,0.8,0.8
496098.718750,5421367.000000,290.420013,0.8,0.8,0.8
496027.843750,5422255.000000,324.179993,0.8,0.8,0.8
496832.500000,5421429.000000,310.320007,0.8,0.8,0.8
496243.937500,5422056.000000,303.899994,0.8,0.8,0.8
496366.812500,5422096.000000,298.839996,0.8,0.8,0.8
496730.187500,5421654.500000,284.750000,0.8,0.8,0.8
496521.843750,5421369.000000,276.369995,0.8,0.8,0.8
496426.156250,5422153.500000,296.700012,0.8,0.8,0.8
496870.937500,5422260.500000,291.730011,0.8,0.8,0.8
496948.062500,5421771.500000,287.010010,0.8,0.8,0.8
496849.562500,5421637.000000,318.109985,0.8,0.8,0.8
496970.093750,5421552.000000,319.720001,0.8,0.8,0.8
496034.281250,5421650.000000,308.649994,0.8,0.8,0.8
496637.375000,5421651.500000,287.130005,0.8,0.8,0.8
496800.281250,5421600.000000,285.959991,0.8,0.8,0.8
496748.156250,5422214.000000,292.040009,0.8,0.8,0.8
496986.687500,5422103.000000,283.190002,0.8,0.8,0.8
496230.656250,5422026.500000,306.109985,0.8,0.8,0.8
496691.093750,5421428.500000,284.820007,0.8,0.8,0.8
496528.125000,5421419.000000,278.329987,0.8,0.8,0.8
496092.156250,5422266.000000,303.859985,0.8,0.8,0.8
496151.906250,5421771.000000,311.179993,0.8,0.8,0.8
495966.812500,5421734.500000,312.359985,0.8,0.8,0.8
497140.093750,5422071.000000,277.209991,0.8,0.8,0.8
496102.656250,5421956.000000,312.730011,0.8,0.8,0.8
496855.562500,5421499.000000,289.920013,0.8,0.8,0.8
496718.593750,5421474.500000,287.750000,0.8,0.8,0.8
496667.375000,5422087.500000,290.450012,0.8,0.8,0.8
496105.531250,5421634.000000,305.670013,0.8,0.8,0.8
496980.781250,5421731.000000,282.940002,0.8,0.8,0.8
496477.875000,5421587.000000,293.899994,0.8,0.8,0.8
496035.437500,5422260.500000,321.690002,0.8,0.8,0.8
496424.156250,5422221.500000,301.660004,0.8,0.8,0.8
496159.156250,5422117.000000,301.160004,0.8,0.8,0.8
496044.437500,5421474.500000,298.329987,0.8,0.8,0.8
497041.062500,5422321.000000,289.970001,0.8,0.8,0.8
496424.375000,5421966.500000,302.779999,0.8,0.8,0.8
496252.250000,5422111.500000,300.589996,0.8,0.8,0.8
496193.843750,5421407.000000,291.720001,0.8,0.8,0.8
496539.062500,5422307.000000,297.739990,0.8,0.8,0.8
496724.718750,5421943.000000,295.149994,0.8,0.8,0.8
496533.812500,5422191.000000,295.299988,0.8,0.8,0.8
495956.281250,5421937.500000,313.859985,0.8,0.8,0.8
497045.968750,5422068.000000,279.500000,0.8,0.8,0.8
496644.406250,5422174.000000,293.140015,0.8,0.8,0.8
496199.500000,5422061.000000,303.790009,0.8,0.8,0.8
496910.187500,5422231.500000,290.299988,0.8,0.8,0.8
496990.812500,5421671.500000,297.690002,0.8,0.8,0.8
496223.718750,5421454.500000,293.559998,0.8,0.8,0.8
497185.218750,5422275.000000,286.940002,0.8,0.8,0.8
496636.187500,5421496.500000,274.769989,0.8,0.8,0.8
497028.093750,5421671.000000,305.170013,0.8,0.8,0.8
496512.875000,5421772.000000,295.459991,0.8,0.8,0.8
496900.500000,5422057.000000,281.220001,0.8,0.8,0.8
496836.218750,5421398.000000,292.390015,0.8,0.8,0.8
496784.531250,5422226.000000,291.760010,0.8,0.8,0.8
497024.937500,5421378.500000,287.510010,0.8,0.8,0.8
496910.125000,5421554.500000,865.729980,0.8,0.8,0.8
496462.968750,5421634.500000,295.070007,0.8,0.8,0.8
496189.531250,5421757.500000,309.769989,0.8,0.8,0.8
496268.781250,5421589.500000,298.500000,0.8,0.8,0.8
496982.656250,5421683.500000,296.209991,0.8,0.8,0.8
496581.781250,5422033.500000,296.260010,0.8,0.8,0.8
496232.187500,5421655.500000,302.410004,0.8,0.8,0.8
496549.750000,5422182.000000,294.750000,0.8,0.8,0.8
496933.375000,5421715.000000,300.890015,0.8,0.8,0.8
496776.625000,5421956.000000,291.929993,0.8,0.8,0.8
497182.437500,5422070.000000,276.600006,0.8,0.8,0.8
496975.312500,5422196.500000,288.429993,0.8,0.8,0.8
496174.218750,5421756.000000,309.839996,0.8,0.8,0.8
496230.531250,5422187.500000,299.970001,0.8,0.8,0.8
496956.093750,5421701.000000,303.359985,0.8,0.8,0.8
496671.343750,5422005.500000,296.170013,0.8,0.8,0.8
496761.125000,5421934.000000,292.940002,0.8,0.8,0.8
497024.656250,5422005.000000,277.670013,0.8,0.8,0.8
495959.156250,5421544.500000,304.850006,0.8,0.8,0.8
496229.312500,5421430.500000,292.130005,0.8,0.8,0.8
496996.375000,5422124.500000,284.679993,0.8,0.8,0.8
496909.875000,5421360.500000,281.790009,0.8,0.8,0.8
496354.406250,5422169.000000,298.230011,0.8,0.8,0.8
496991.875000,5421942.500000,278.630005,0.8,0.8,0.8
496550.875000,5421390.000000,272.769989,0.8,0.8,0.8
496910.187500,5421368.000000,297.510010,0.8,0.8,0.8
496951.343750,5421954.500000,280.260010,0.8,0.8,0.8
496591.843750,5422296.000000,299.119995,0.8,0.8,0.8
497005.718750,5421394.500000,292.079987,0.8,0.8,0.8
496959.812500,5421688.000000,302.140015,0.8,0.8,0.8
496944.000000,5421710.500000,302.690002,0.8,0.8,0.8
497033.593750,5421567.000000,297.790009,0.8,0.8,0.8
496783.218750,5421704.000000,289.850006,0.8,0.8,0.8
496026.843750,5422242.000000,309.750000,0.8,0.8,0.8
496191.406250,5421452.000000,294.429993,0.8,0.8,0.8
496452.187500,5422211.500000,300.459991,0.8,0.8,0.8
496078.093750,5421420.500000,280.140015,0.8,0.8,0.8
496647.468750,5422160.000000,292.720001,0.8,0.8,0.8
497067.281250,5421709.000000,314.670013,0.8,0.8,0.8
495967.500000,5421532.500000,849.440002,0.8,0.8,0.8
495991.656250,5422182.500000,299.350006,0.8,0.8,0.8
496791.343750,5421453.000000,304.299988,0.8,0.8,0.8
497034.656250,5421718.500000,290.880005,0.8,0.8,0.8
496240.062500,5421412.000000,290.750000,0.8,0.8,0.8
496607.625000,5421537.500000,283.480011,0.8,0.8,0.8
496409.062500,5421743.500000,300.670013,0.8,0.8,0.8
496469.500000,5421968.500000,301.739990,0.8,0.8,0.8
496213.968750,5421677.500000,303.839996,0.8,0.8,0.8
496773.656250,5422197.500000,291.119995,0.8,0.8,0.8
496758.625000,5422096.500000,287.119995,0.8,0.8,0.8
496149.093750,5421370.500000,290.320007,0.8,0.8,0.8
496066.937500,5421650.500000,307.570007,0.8,0.8,0.8
496811.375000,5421373.000000,306.899994,0.8,0.8,0.8
496275.343750,5421555.500000,296.779999,0.8,0.8,0.8
496849.875000,5421617.500000,292.700012,0.8,0.8,0.8
496133.875000,5421687.000000,332.220001,0.8,0.8,0.8
496481.812500,5421467.000000,299.299988,0.8,0.8,0.8
497186.843750,5421753.000000,295.149994,0.8,0.8,0.8
496262.625000,5422246.500000,300.700012,0.8,0.8,0.8
497192.781250,5421966.500000,279.230011,0.8,0.8,0.8
496892.937500,5421965.500000,283.299988,0.8,0.8,0.8
496911.937500,5421432.500000,293.790009,0.8,0.8,0.8
496204.125000,5421606.000000,300.380005,0.8,0.8,0.8
497073.593750,5421620.000000,298.290009,0.8,0.8,0.8
496907.000000,5421482.500000,303.790009,0.8,0.8,0.8
496604.625000,5422298.500000,298.649994,0.8,0.8,0.8
496978.781250,5421712.000000,282.220001,0.8,0.8,0.8
496411.156250,5421592.500000,296.459991,0.8,0.8,0.8
496410.625000,5422253.000000,303.299988,0.8,0.8,0.8
496997.062500,5421510.500000,294.130005,0.8,0.8,0.8
496161.187500,5421692.500000,305.570007,0.8,0.8,0.8
496432.250000,5422218.500000,301.540009,0.8,0.8,0.8
496821.593750,5422269.500000,292.839996,0.8,0.8,0.8
497156.750000,5421491.000000,303.140015,0.8,0.8,0.8
496891.937500,5421374.500000,290.890015,0.8,0.8,0.8
497119.656250,5421608.500000,301.209991,0.8,0.8,0.8
496197.000000,5422166.000000,300.260010,0.8,0.8,0.8
496335.937500,5421383.000000,284.920013,0.8,0.8,0.8
496449.718750,5421670.500000,295.489990,0.8,0.8,0.8
496425.000000,5422208.500000,299.450012,0.8,0.8,0.8
496078.281250,5421958.500000,312.839996,0.8,0.8,0.8
496765.343750,5421383.500000,285.679993,0.8,0.8,0.8
496197.625000,5421405.000000,291.450012,0.8,0.8,0.8
496426.656250,5421939.500000,303.440002,0.8,0.8,0.8
496401.562500,5422156.000000,296.489990,0.8,0.8,0.8
496745.593750,5421453.000000,289.589996,0.8,0.8,0.8
496649.593750,5422246.000000,294.679993,0.8,0.8,0.8
496015.906250,5422246.500000,304.170013,0.8,0.8,0.8
496916.000000,5421698.500000,298.279999,0.8,0.8,0.8
496647.375000,5421675.000000,320.260010,0.8,0.8,0.8
496703.750000,5422262.500000,294.269989,0.8,0.8,0.8
496400.812500,5421754.500000,301.470001,0.8,0.8,0.8
497039.312500,5422208.500000,287.619995,0.8,0.8,0.8
496931.375000,5421401.500000,292.480011,0.8,0.8,0.8
496876.843750,5421414.000000,293.119995,0.8,0.8,0.8
496850.906250,5422073.500000,283.420013,0.8,0.8,0.8
496541.468750,5421956.500000,299.049988,0.8,0.8,0.8
496224.000000,5422066.000000,303.359985,0.8,0.8,0.8
496900.625000,5422026.000000,280.609985,0.8,0.8,0.8
496375.625000,5421655.500000,299.390015,0.8,0.8,0.8
496910.281250,5421745.500000,296.980011,0.8,0.8,0.8
496723.156250,5421483.500000,284.239990,0.8,0.8,0.8
495991.375000,5421956.500000,313.070007,0.8,0.8,0.8
496982.687500,5421549.000000,865.739990,0.8,0.8,0.8
497019.562500,5421514.000000,293.769989,0.8,0.8,0.8
496222.250000,5422272.000000,301.459991,0.8,0.8,0.8
496899.062500,5421510.500000,304.980011,0.8,0.8,0.8
496280.500000,5421478.000000,292.709991,0.8,0.8,0.8
495972.906250,5422250.000000,307.470001,0.8,0.8,0.8
497172.375000,5422094.000000,277.320007,0.8,0.8,0.8
496760.718750,5422054.000000,287.850006,0.8,0.8,0.8
496227.031250,5422037.500000,305.399994,0.8,0.8,0.8
497082.593750,5421644.000000,298.809998,0.8,0.8,0.8
496643.125000,5422156.500000,292.649994,0.8,0.8,0.8
497002.343750,5422053.500000,279.609985,0.8,0.8,0.8
496098.343750,5421355.000000,289.880005,0.8,0.8,0.8
496054.562500,5421404.000000,271.279999,0.8,0.8,0.8
496929.906250,5422206.000000,289.279999,0.8,0.8,0.8
496670.000000,5421405.000000,278.179993,0.8,0.8,0.8
496925.125000,5422112.000000,284.540009,0.8,0.8,0.8
497060.218750,5421390.000000,294.589996,0.8,0.8,0.8
496743.375000,5421643.000000,285.200012,0.8,0.8,0.8
496421.656250,5422251.500000,305.579987,0.8,0.8,0.8
496908.531250,5422023.500000,280.459991,0.8,0.8,0.8
496322.875000,5422062.500000,301.320007,0.8,0.8,0.8
496115.937500,5421609.500000,304.700012,0.8,0.8,0.8
496121.500000,5422152.500000,301.579987,0.8,0.8,0.8
497105.156250,5421786.000000,287.519989,0.8,0.8,0.8
496949.843750,5421603.500000,298.570007,0.8,0.8,0.8
496917.812500,5422176.500000,288.190002,0.8,0.8,0.8
496549.562500,5421457.000000,282.980011,0.8,0.8,0.8
496488.250000,5421427.000000,282.730011,0.8,0.8,0.8
497147.656250,5421463.500000,297.190002,0.8,0.8,0.8
496714.718750,5421790.000000,291.820007,0.8,0.8,0.8
496021.468750,5422222.500000,321.149994,0.8,0.8,0.8
496530.656250,5422132.000000,294.579987,0.8,0.8,0.8
497115.156250,5422015.500000,276.019989,0.8,0.8,0.8
496356.593750,5421489.000000,291.670013,0.8,0.8,0.8
496827.375000,5422173.000000,289.239990,0.8,0.8,0.8
497088.906250,5421945.000000,278.970001,0.8,0.8,0.8
496458.656250,5422118.000000,296.559998,0.8,0.8,0.8
496953.093750,5422019.000000,279.369995,0.8,0.8,0.8
496264.250000,5422105.000000,300.420013,0.8,0.8,0.8
497150.437500,5421657.000000,300.309998,0.8,0.8,0.8
496984.406250,5421983.000000,278.459991,0.8,0.8,0.8
496885.281250,5422210.500000,289.709991,0.8,0.8,0.8
496037.687500,5421955.500000,314.600006,0.8,0.8,0.8
496050.031250,5421978.500000,312.079987,0.8,0.8,0.8
496487.406250,5421943.500000,301.820007,0.8,0.8,0.8
497188.281250,5421616.500000,303.450012,0.8,0.8,0.8
496981.812500,5422091.000000,282.179993,0.8,0.8,0.8
496939.531250,5421704.000000,305.779999,0.8,0.8,0.8
497069.437500,5421573.500000,301.750000,0.8,0.8,0.8
497058.843750,5422279.000000,288.989990,0.8,0.8,0.8
496683.750000,5422096.000000,289.579987,0.8,0.8,0.8
497194.250000,5422317.000000,287.029999,0.8,0.8,0.8
496980.000000,5421395.000000,292.510010,0.8,0.8,0.8
496339.437500,5421450.000000,289.760010,0.8,0.8,0.8
496370.593750,5421588.000000,297.380005,0.8,0.8,0.8
496141.375000,5422275.500000,303.130005,0.8,0.8,0.8
496026.000000,5421544.500000,892.380005,0.8,0.8,0.8
497057.281250,5421945.000000,276.859985,0.8,0.8,0.8
496833.812500,5422095.000000,286.260010,0.8,0.8,0.8
496846.531250,5422220.000000,290.450012,0.8,0.8,0.8
496212.406250,5421964.500000,310.380005,0.8,0.8,0.8
496667.781250,5421579.500000,276.559998,0.8,0.8,0.8
496720.250000,5421608.500000,282.059998,0.8,0.8,0.8
496848.312500,5421631.500000,289.619995,0.8,0.8,0.8
496114.812500,5421753.500000,310.779999,0.8,0.8,0.8
496301.531250,5421404.000000,288.269989,0.8,0.8,0.8
496063.843750,5421516.500000,300.359985,0.8,0.8,0.8
496346.000000,5421979.500000,304.600006,0.8,0.8,0.8
496145.125000,5421698.000000,306.190002,0.8,0.8,0.8
496854.500000,5421923.000000,285.950012,0.8,0.8,0.8
495977.937500,5421934.000000,314.410004,0.8,0.8,0.8
496706.968750,5421672.500000,298.880005,0.8,0.8,0.8
497186.875000,5422055.500000,293.489990,0.8,0.8,0.8
496669.500000,5421570.500000,275.910004,0.8,0.8,0.8
497131.125000,5421972.000000,275.480011,0.8,0.8,0.8
497180.906250,5422230.000000,286.269989,0.8,0.8,0.8
497186.718750,5422137.500000,279.970001,0.8,0.8,0.8
495993.093750,5422042.500000,306.559998,0.8,0.8,0.8
496659.375000,5421738.000000,291.760010,0.8,0.8,0.8
496735.250000,5421790.000000,295.390015,0.8,0.8,0.8
496397.500000,5422317.500000,302.119995,0.8,0.8,0.8
496361.375000,5421765.500000,303.820007,0.8,0.8,0.8
496164.812500,5421626.000000,302.799988,0.8,0.8,0.8
496976.468750,5422165.500000,287.329987,0.8,0.8,0.8
496842.781250,5421482.000000,299.049988,0.8,0.8,0.8
496922.531250,5421994.000000,280.609985,0.8,0.8,0.8
496914.156250,5421475.500000,308.769989,0.8,0.8,0.8
496169.562500,5421646.000000,303.119995,0.8,0.8,0.8
496472.031250,5421543.000000,292.700012,0.8,0.8,0.8
496482.312500,5421721.500000,294.209991,0.8,0.8,0.8
496075.781250,5421457.000000,295.149994,0.8,0.8,0.8
497111.156250,5421682.500000,296.579987,0.8,0.8,0.8
496024.906250,5421982.500000,310.480011,0.8,0.8,0.8
497044.031250,5421622.500000,298.239990,0.8,0.8,0.8
497105.093750,5422060.000000,277.739990,0.8,0.8,0.8
496939.968750,5422066.000000,281.179993,0.8,0.8,0.8
496224.593750,5421525.500000,297.200012,0.8,0.8,0.8
496845.250000,5421443.000000,302.899994,0.8,0.8,0.8
496949.093750,5421527.500000,293.700012,0.8,0.8,0.8
496663.062500,5422205.000000,293.350006,0.8,0.8,0.8
496814.562500,5421953.500000,288.980011,0.8,0.8,0.8
496151.843750,5421921.000000,313.029999,0.8,0.8,0.8
496697.062500,5421563.000000,870.130005,0.8,0.8,0.8
496733.000000,5421696.500000,289.420013,0.8,0.8,0.8
496741.187500,5422331.000000,295.339996,0.8,0.8,0.8
496433.375000,5422300.000000,298.529999,0.8,0.8,0.8
496819.437500,5421697.500000,292.040009,0.8,0.8,0.8
496730.687500,5421587.500000,848.150024,0.8,0.8,0.8
496272.468750,5421635.500000,301.239990,0.8,0.8,0.8
496591.343750,5421993.500000,296.959991,0.8,0.8,0.8
496063.625000,5421506.000000,299.670013,0.8,0.8,0.8
495962.687500,5421447.000000,280.799988,0.8,0.8,0.8
496576.468750,5421475.500000,281.700012,0.8,0.8,0.8
496383.500000,5422242.000000,306.690002,0.8,0.8,0.8
496947.812500,5422046.500000,279.700012,0.8,0.8,0.8
497088.187500,5421590.500000,300.059998,0.8,0.8,0.8
497025.468750,5422187.500000,287.160004,0.8,0.8,0.8
496181.562500,5421612.000000,301.279999,0.8,0.8,0.8
496669.250000,5421693.500000,300.040009,0.8,0.8,0.8
496069.750000,5421599.500000,305.459991,0.8,0.8,0.8
496726.812500,5421967.000000,295.140015,0.8,0.8,0.8
496664.843750,5421614.500000,278.309998,0.8,0.8,0.8
496986.187500,5422268.000000,290.170013,0.8,0.8,0.8
496919.593750,5421654.000000,297.510010,0.8,0.8,0.8
496378.562500,5421475.000000,290.420013,0.8,0.8,0.8
496275.031250,5422115.500000,300.019989,0.8,0.8,0.8
496011.218750,5422243.000000,312.790009,0.8,0.8,0.8
496075.718750,5421589.000000,304.880005,0.8,0.8,0.8
496385.968750,5421777.500000,303.200012,0.8,0.8,0.8
496012.187500,5421518.500000,301.130005,0.8,0.8,0.8
496424.781250,5421547.000000,294.220001,0.8,0.8,0.8
495986.781250,5422252.500000,304.429993,0.8,0.8,0.8
497146.562500,5421792.000000,288.250000,0.8,0.8,0.8
497058.593750,5422242.000000,288.279999,0.8,0.8,0.8
496682.406250,5421518.500000,270.529999,0.8,0.8,0.8
496651.093750,5422285.500000,301.670013,0.8,0.8,0.8
497110.125000,5421628.500000,301.010010,0.8,0.8,0.8
496350.000000,5421705.000000,302.119995,0.8,0.8,0.8
496984.781250,5422219.000000,289.019989,0.8,0.8,0.8
496898.718750,5421476.000000,315.089996,0.8,0.8,0.8
496904.781250,5421473.000000,317.500000,0.8,0.8,0.8
496458.875000,5422315.500000,298.320007,0.8,0.8,0.8
496296.906250,5421975.500000,306.779999,0.8,0.8,0.8
497105.062500,5421657.500000,311.440002,0.8,0.8,0.8
497000.687500,5422269.000000,289.929993,0.8,0.8,0.8
496682.406250,5422125.500000,290.609985,0.8,0.8,0.8
496240.031250,5422059.500000,303.779999,0.8,0.8,0.8
496746.375000,5421659.000000,285.760010,0.8,0.8,0.8
496901.062500,5421784.500000,289.609985,0.8,0.8,0.8
496560.093750,5421759.500000,292.640015,0.8,0.8,0.8
497114.906250,5421562.000000,892.489990,0.8,0.8,0.8
496784.656250,5421711.500000,290.149994,0.8,0.8,0.8
497059.625000,5421472.000000,294.260010,0.8,0.8,0.8
497074.812500,5421541.500000,843.400024,0.8,0.8,0.8
496043.406250,5422103.000000,303.329987,0.8,0.8,0.8
496735.562500,5421428.000000,290.350006,0.8,0.8,0.8
496472.593750,5422146.000000,296.279999,0.8,0.8,0.8
495952.156250,5422249.500000,303.920013,0.8,0.8,0.8
496688.562500,5422194.500000,292.670013,0.8,0.8,0.8
497141.593750,5421985.000000,274.130005,0.8,0.8,0.8
496324.750000,5422026.500000,303.399994,0.8,0.8,0.8
496399.875000,5422303.500000,304.600006,0.8,0.8,0.8
496100.968750,5421439.000000,295.029999,0.8,0.8,0.8
496590.843750,5421550.000000,286.000000,0.8,0.8,0.8
496726.250000,5421463.000000,286.750000,0.8,0.8,0.8
496836.000000,5421478.500000,302.029999,0.8,0.8,0.8
496662.750000,5421681.500000,285.859985,0.8,0.8,0.8
496176.843750,5422248.500000,301.989990,0.8,0.8,0.8
496851.250000,5421385.000000,302.929993,0.8,0.8,0.8
496564.468750,5421472.500000,284.049988,0.8,0.8,0.8
496434.187500,5421567.000000,294.959991,0.8,0.8,0.8
496013.843750,5422104.000000,304.070007,0.8,0.8,0.8
496061.000000,5421742.000000,311.130005,0.8,0.8,0.8
497111.750000,5422260.000000,287.929993,0.8,0.8,0.8
495962.718750,5422008.500000,309.279999,0.8,0.8,0.8
497199.937500,5422334.000000,286.950012,0.8,0.8,0.8
496244.562500,5421699.000000,305.059998,0.8,0.8,0.8
496230.000000,5421528.000000,297.250000,0.8,0.8,0.8
497172.531250,5421673.500000,300.010010,0.8,0.8,0.8
496003.062500,5422243.000000,307.820007,0.8,0.8,0.8
496720.093750,5421443.500000,287.850006,0.8,0.8,0.8
496813.781250,5421536.000000,283.700012,0.8,0.8,0.8
496908.625000,5421606.000000,293.540009,0.8,0.8,0.8
496977.062500,5422002.500000,278.709991,0.8,0.8,0.8
496216.437500,5422142.000000,299.769989,0.8,0.8,0.8
496917.500000,5422148.500000,286.859985,0.8,0.8,0.8
496779.156250,5421700.000000,289.519989,0.8,0.8,0.8
496778.218750,5421494.000000,291.200012,0.8,0.8,0.8
496311.187500,5421578.500000,297.739990,0.8,0.8,0.8
496720.062500,5422278.000000,294.500000,0.8,0.8,0.8
496583.375000,5421658.000000,285.179993,0.8,0.8,0.8
496786.843750,5422237.000000,292.160004,0.8,0.8,0.8
496041.687500,5421577.000000,884.059998,0.8,0.8,0.8
496622.187500,5421653.500000,281.519989,0.8,0.8,0.8
497148.000000,5422094.500000,277.959991,0.8,0.8,0.8
496036.031250,5422261.000000,308.559998,0.8,0.8,0.8
496427.625000,5422038.000000,299.769989,0.8,0.8,0.8
496956.468750,5421982.500000,279.559998,0.8,0.8,0.8
497012.000000,5421506.500000,329.149994,0.8,0.8,0.8
496512.000000,5421465.000000,292.940002,0.8,0.8,0.8
496608.343750,5421367.500000,274.179993,0.8,0.8,0.8
496709.875000,5422300.500000,298.459991,0.8,0.8,0.8
496605.687500,5421488.000000,277.489990,0.8,0.8,0.8
497009.500000,5421556.000000,880.229980,0.8,0.8,0.8
496971.156250,5422101.000000,283.070007,0.8,0.8,0.8
496505.875000,5421723.000000,292.170013,0.8,0.8,0.8
496263.437500,5421717.000000,306.000000,0.8,0.8,0.8
497154.843750,5421508.500000,306.450012,0.8,0.8,0.8
497072.906250,5421946.500000,276.070007,0.8,0.8,0.8
496935.875000,5421770.000000,287.089996,0.8,0.8,0.8
496439.531250,5422034.000000,300.260010,0.8,0.8,0.8
496271.250000,5421601.000000,299.109985,0.8,0.8,0.8
496181.750000,5421753.000000,309.529999,0.8,0.8,0.8
496531.375000,5421922.500000,301.309998,0.8,0.8,0.8
497132.343750,5422261.000000,287.239990,0.8,0.8,0.8
496624.500000,5421947.000000,297.079987,0.8,0.8,0.8
496978.656250,5422269.000000,290.339996,0.8,0.8,0.8
496716.781250,5421703.000000,289.369995,0.8,0.8,0.8
496654.843750,5422260.000000,294.890015,0.8,0.8,0.8
497142.031250,5422280.500000,287.679993,0.8,0.8,0.8
497005.250000,5421596.000000,875.059998,0.8,0.8,0.8
497043.906250,5421623.500000,872.390015,0.8,0.8,0.8
496903.375000,5421569.500000,293.170013,0.8,0.8,0.8
496343.625000,5421712.500000,302.640015,0.8,0.8,0.8
497075.875000,5421781.500000,287.600006,0.8,0.8,0.8
496728.937500,5422241.500000,293.220001,0.8,0.8,0.8
497187.125000,5422094.500000,277.130005,0.8,0.8,0.8
497086.093750,5421675.500000,306.290009,0.8,0.8,0.8
496195.937500,5421586.000000,299.880005,0.8,0.8,0.8
496262.218750,5421460.500000,293.369995,0.8,0.8,0.8
496165.718750,5421390.000000,291.190002,0.8,0.8,0.8
496587.656250,5421615.000000,285.679993,0.8,0.8,0.8
497183.906250,5422303.500000,286.750000,0.8,0.8,0.8
495960.250000,5421626.000000,309.070007,0.8,0.8,0.8
496506.906250,5422179.000000,298.130005,0.8,0.8,0.8
496038.875000,5421675.500000,308.750000,0.8,0.8,0.8
497119.093750,5421404.000000,332.750000,0.8,0.8,0.8
496670.218750,5421794.000000,295.260010,0.8,0.8,0.8
497037.218750,5421769.500000,282.329987,0.8,0.8,0.8
496075.906250,5422135.500000,302.320007,0.8,0.8,0.8
496660.312500,5422169.000000,292.649994,0.8,0.8,0.8
496784.875000,5421365.500000,279.859985,0.8,0.8,0.8
496512.000000,5421423.500000,280.019989,0.8,0.8,0.8
496719.281250,5421494.000000,289.510010,0.8,0.8,0.8
496677.562500,5421566.500000,275.720001,0.8,0.8,0.8
496494.687500,5421401.000000,283.700012,0.8,0.8,0.8
496150.156250,5422211.500000,304.230011,0.8,0.8,0.8
496963.906250,5421523.500000,293.820007,0.8,0.8,0.8
496931.718750,5421605.000000,296.480011,0.8,0.8,0.8
497039.250000,5422160.500000,285.730011,0.8,0.8,0.8
497199.468750,5421429.000000,297.429993,0.8,0.8,0.8
496653.843750,5421662.000000,288.549988,0.8,0.8,0.8
496096.718750,5421986.500000,311.140015,0.8,0.8,0.8
496750.718750,5422006.000000,292.089996,0.8,0.8,0.8
496037.937500,5421687.000000,333.950012,0.8,0.8,0.8
496835.250000,5421388.000000,307.079987,0.8,0.8,0.8
496239.500000,5421392.000000,289.480011,0.8,0.8,0.8
496234.843750,5421450.500000,293.059998,0.8,0.8,0.8
496803.937500,5421742.000000,299.640015,0.8,0.8,0.8
496186.343750,5422213.000000,304.959991,0.8,0.8,0.8
497166.937500,5421589.500000,302.970001,0.8,0.8,0.8
496586.937500,5422190.000000,294.609985,0.8,0.8,0.8
495962.312500,5422288.500000,315.720001,0.8,0.8,0.8
496735.750000,5421588.500000,280.760010,0.8,0.8,0.8
496975.000000,5422222.000000,289.290009,0.8,0.8,0.8
496626.812500,5421714.500000,289.750000,0.8,0.8,0.8
496694.781250,5421442.000000,303.429993,0.8,0.8,0.8
496907.406250,5421631.500000,295.119995,0.8,0.8,0.8
496809.375000,5421529.500000,288.910004,0.8,0.8,0.8
496486.312500,5421469.500000,287.459991,0.8,0.8,0.8
496813.406250,5421400.500000,287.799988,0.8,0.8,0.8
496561.312500,5422245.500000,296.059998,0.8,0.8,0.8
497182.750000,5422280.000000,286.929993,0.8,0.8,0.8
495988.593750,5422033.500000,307.130005,0.8,0.8,0.8
496204.031250,5421747.000000,308.799988,0.8,0.8,0.8
496835.812500,5421753.500000,296.570007,0.8,0.8,0.8
496045.562500,5421671.000000,308.529999,0.8,0.8,0.8
496422.281250,5421742.000000,299.910004,0.8,0.8,0.8
496465.843750,5421490.500000,289.869995,0.8,0.8,0.8
496817.312500,5421751.500000,296.559998,0.8,0.8,0.8
496481.937500,5421456.500000,286.670013,0.8,0.8,0.8
496028.125000,5422379.500000,303.190002,0.8,0.8,0.8
496992.875000,5422304.000000,290.589996,0.8,0.8,0.8
497197.625000,5422057.000000,277.260010,0.8,0.8,0.8
496120.656250,5422071.500000,303.950012,0.8,0.8,0.8
496653.406250,5421691.500000,321.709991,0.8,0.8,0.8
497135.656250,5421469.500000,297.480011,0.8,0.8,0.8
496467.968750,5422136.500000,296.049988,0.8,0.8,0.8
496848.093750,5422238.500000,291.179993,0.8,0.8,0.8
496764.531250,5421486.000000,300.190002,0.8,0.8,0.8
496777.625000,5422241.500000,292.540009,0.8,0.8,0.8
496473.687500,5421378.000000,282.519989,0.8,0.8,0.8
496765.531250,5421501.000000,290.130005,0.8,0.8,0.8
496388.187500,5421508.500000,292.450012,0.8,0.8,0.8
496025.281250,5421596.500000,306.089996,0.8,0.8,0.8
497065.156250,5421952.000000,276.589996,0.8,0.8,0.8
496405.281250,5422180.000000,295.660004,0.8,0.8,0.8
496006.093750,5422227.000000,323.089996,0.8,0.8,0.8
497115.125000,5421755.500000,290.459991,0.8,0.8,0.8
496683.593750,5422012.500000,295.339996,0.8,0.8,0.8
497145.312500,5421766.500000,290.619995,0.8,0.8,0.8
497049.562500,5421732.000000,292.029999,0.8,0.8,0.8
496653.812500,5422038.000000,294.019989,0.8,0.8,0.8
496012.281250,5421985.500000,311.510010,0.8,0.8,0.8
496054.375000,5421628.000000,307.200012,0.8,0.8,0.8
496803.562500,5421937.000000,289.799988,0.8,0.8,0.8
496677.062500,5422108.500000,289.579987,0.8,0.8,0.8
497086.718750,5421460.000000,294.089996,0.8,0.8,0.8
497054.812500,5422292.500000,289.649994,0.8,0.8,0.8
496159.875000,5422256.000000,302.420013,0.8,0.8,0.8
495968.968750,5421530.500000,303.359985,0.8,0.8,0.8
496737.000000,5421467.000000,288.980011,0.8,0.8,0.8
496833.593750,5421583.000000,866.859985,0.8,0.8,0.8
497133.562500,5421691.500000,296.799988,0.8,0.8,0.8
497149.562500,5421697.000000,304.970001,0.8,0.8,0.8
496943.468750,5421656.000000,297.489990,0.8,0.8,0.8
496145.062500,5422177.000000,301.029999,0.8,0.8,0.8
495997.687500,5422205.500000,309.450012,0.8,0.8,0.8
496912.062500,5421599.500000,880.030029,0.8,0.8,0.8
497148.375000,5422119.000000,279.630005,0.8,0.8,0.8
496126.000000,5422103.000000,302.309998,0.8,0.8,0.8
496743.343750,5421763.000000,291.179993,0.8,0.8,0.8
496330.937500,5421576.500000,297.480011,0.8,0.8,0.8
496050.687500,5421374.000000,274.049988,0.8,0.8,0.8
497189.093750,5421930.500000,282.529999,0.8,0.8,0.8
496529.625000,5422114.500000,296.890015,0.8,0.8,0.8
497031.593750,5421604.500000,297.059998,0.8,0.8,0.8
496311.343750,5421530.000000,294.720001,0.8,0.8,0.8
496909.656250,5421382.000000,305.779999,0.8,0.8,0.8
496846.625000,5421627.000000,287.119995,0.8,0.8,0.8
495972.875000,5422267.500000,322.609985,0.8,0.8,0.8
496728.156250,5421500.000000,278.970001,0.8,0.8,0.8
496460.656250,5421717.500000,296.070007,0.8,0.8,0.8
496006.625000,5422215.000000,303.410004,0.8,0.8,0.8
497049.937500,5421662.500000,297.230011,0.8,0.8,0.8
496847.843750,5422138.000000,287.609985,0.8,0.8,0.8
496737.218750,5421472.000000,288.390015,0.8,0.8,0.8
496330.812500,5422009.000000,304.040009,0.8,0.8,0.8
496581.656250,5421654.000000,285.269989,0.8,0.8,0.8
496910.593750,5422186.500000,288.549988,0.8,0.8,0.8
496176.875000,5421727.000000,307.549988,0.8,0.8,0.8
496814.843750,5421713.000000,293.540009,0.8,0.8,0.8
497130.625000,5422187.500000,285.540009,0.8,0.8,0.8
495974.906250,5422273.500000,303.959991,0.8,0.8,0.8
496092.031250,5422178.000000,302.100006,0.8,0.8,0.8
496527.843750,5422005.000000,296.619995,0.8,0.8,0.8
497184.625000,5421478.000000,306.369995,0.8,0.8,0.8
496997.031250,5421957.000000,278.320007,0.8,0.8,0.8
497108.531250,5421592.000000,299.450012,0.8,0.8,0.8
496607.375000,5421676.000000,284.929993,0.8,0.8,0.8
496769.093750,5421351.000000,276.799988,0.8,0.8,0.8
496521.125000,5421622.500000,290.910004,0.8,0.8,0.8
496603.375000,5422054.500000,294.390015,0.8,0.8,0.8
496930.125000,5422072.000000,281.739990,0.8,0.8,0.8
496224.500000,5421966.000000,309.920013,0.8,0.8,0.8
497191.875000,5421660.000000,302.750000,0.8,0.8,0.8
497060.968750,5422316.000000,289.450012,0.8,0.8,0.8
496987.937500,5422091.500000,282.190002,0.8,0.8,0.8
495978.687500,5422303.500000,314.440002,0.8,0.8,0.8
497068.562500,5422141.000000,283.829987,0.8,0.8,0.8
496882.000000,5421737.000000,298.220001,0.8,0.8,0.8
497049.375000,5422162.500000,285.570007,0.8,0.8,0.8
497090.406250,5421552.500000,301.839996,0.8,0.8,0.8
496387.718750,5421743.500000,301.609985,0.8,0.8,0.8
495992.718750,5421538.500000,303.070007,0.8,0.8,0.8
496873.468750,5421553.500000,289.980011,0.8,0.8,0.8
496880.312500,5421645.500000,293.720001,0.8,0.8,0.8
497086.625000,5422176.000000,285.809998,0.8,0.8,0.8
496796.906250,5422038.000000,285.750000,0.8,0.8,0.8
496432.468750,5421677.000000,296.399994,0.8,0.8,0.8
497129.687500,5422219.500000,286.679993,0.8,0.8,0.8
496995.468750,5421676.000000,293.730011,0.8,0.8,0.8
496621.906250,5421785.000000,295.420013,0.8,0.8,0.8
496642.187500,5421991.500000,299.690002,0.8,0.8,0.8
497033.125000,5422230.000000,288.320007,0.8,0.8,0.8
495926.281250,5421564.500000,887.250000,0.8,0.8,0.8
497132.218750,5421576.000000,301.649994,0.8,0.8,0.8
496542.875000,5421385.500000,272.559998,0.8,0.8,0.8
496941.937500,5422146.500000,286.579987,0.8,0.8,0.8
496669.062500,5422063.500000,291.750000,0.8,0.8,0.8
496337.187500,5421972.500000,305.329987,0.8,0.8,0.8
496881.250000,5421512.000000,301.359985,0.8,0.8,0.8
496297.312500,5421565.500000,876.599976,0.8,0.8,0.8
495975.218750,5421565.500000,305.079987,0.8,0.8,0.8
496834.187500,5421716.500000,298.160004,0.8,0.8,0.8
496288.406250,5421650.000000,301.940002,0.8,0.8,0.8
496162.937500,5421740.000000,308.649994,0.8,0.8,0.8
496591.093750,5422216.500000,294.950012,0.8,0.8,0.8
496931.156250,5421423.500000,293.609985,0.8,0.8,0.8
496003.781250,5421406.000000,270.709991,0.8,0.8,0.8
496370.468750,5421538.500000,294.649994,0.8,0.8,0.8
496605.062500,5422023.000000,301.649994,0.8,0.8,0.8
496524.593750,5422067.000000,296.720001,0.8,0.8,0.8
496554.843750,5421389.000000,271.149994,0.8,0.8,0.8
496622.968750,5421463.000000,273.260010,0.8,0.8,0.8
496774.812500,5421583.000000,278.040009,0.8,0.8,0.8
496502.250000,5422240.000000,304.179993,0.8,0.8,0.8
496128.218750,5421718.500000,307.820007,0.8,0.8,0.8
496474.968750,5422301.000000,298.250000,0.8,0.8,0.8
496425.625000,5422293.500000,298.700012,0.8,0.8,0.8
496486.312500,5421635.500000,293.119995,0.8,0.8,0.8
496210.718750,5421523.000000,297.329987,0.8,0.8,0.8
496869.375000,5421686.500000,298.260010,0.8,0.8,0.8
496638.375000,5422288.000000,301.119995,0.8,0.8,0.8
497175.031250,5422006.500000,276.890015,0.8,0.8,0.8
496601.531250,5421690.000000,310.529999,0.8,0.8,0.8
496685.687500,5421383.000000,278.769989,0.8,0.8,0.8
496693.125000,5421459.500000,292.750000,0.8,0.8,0.8
495992.625000,5421382.000000,271.880005,0.8,0.8,0.8
496107.875000,5421429.500000,294.260010,0.8,0.8,0.8
496882.156250,5421454.000000,290.799988,0.8,0.8,0.8
496774.812500,5421441.500000,291.859985,0.8,0.8,0.8
496820.625000,5421524.500000,295.350006,0.8,0.8,0.8
496839.156250,5421989.000000,285.609985,0.8,0.8,0.8
497051.218750,5421982.000000,277.089996,0.8,0.8,0.8
496830.125000,5421519.500000,291.149994,0.8,0.8,0.8
495994.812500,5421692.000000,309.929993,0.8,0.8,0.8
496491.218750,5422012.000000,301.130005,0.8,0.8,0.8
496860.031250,5421390.500000,291.660004,0.8,0.8,0.8
496184.718750,5422243.000000,301.769989,0.8,0.8,0.8
497029.406250,5421716.000000,293.579987,0.8,0.8,0.8
496930.343750,5422282.500000,291.209991,0.8,0.8,0.8
496534.687500,5421382.000000,272.760010,0.8,0.8,0.8
496621.593750,5422275.500000,296.950012,0.8,0.8,0.8
497011.812500,5421464.000000,293.470001,0.8,0.8,0.8
496036.062500,5422236.500000,318.059998,0.8,0.8,0.8
496092.625000,5421607.500000,305.190002,0.8,0.8,0.8
497150.312500,5421803.500000,289.190002,0.8,0.8,0.8
496272.156250,5422141.000000,298.839996,0.8,0.8,0.8
496073.468750,5421585.500000,304.670013,0.8,0.8,0.8
496477.593750,5422128.000000,296.470001,0.8,0.8,0.8
496066.031250,5421403.000000,273.890015,0.8,0.8,0.8
496391.437500,5422123.500000,299.760010,0.8,0.8,0.8
496819.562500,5421542.500000,286.709991,0.8,0.8,0.8
496270.000000,5422061.500000,302.779999,0.8,0.8,0.8
496060.750000,5421768.500000,312.989990,0.8,0.8,0.8
496697.937500,5421367.000000,285.829987,0.8,0.8,0.8
496639.562500,5421713.500000,289.720001,0.8,0.8,0.8
496992.625000,5421986.000000,278.160004,0.8,0.8,0.8
497091.406250,5421772.500000,290.709991,0.8,0.8,0.8
497177.468750,5422193.500000,284.920013,0.8,0.8,0.8
496461.562500,5422099.500000,296.549988,0.8,0.8,0.8
496680.062500,5421734.500000,301.040009,0.8,0.8,0.8
496226.250000,5421739.500000,307.739990,0.8,0.8,0.8
496793.562500,5421772.000000,296.720001,0.8,0.8,0.8
496374.000000,5421571.000000,296.470001,0.8,0.8,0.8
496801.406250,5421687.000000,332.529999,0.8,0.8,0.8
496827.500000,5421368.000000,281.500000,0.8,0.8,0.8
497030.281250,5422289.000000,290.079987,0.8,0.8,0.8
496803.593750,5421363.000000,295.750000,0.8,0.8,0.8
496833.218750,5422017.000000,284.070007,0.8,0.8,0.8
496592.406250,5421726.500000,290.239990,0.8,0.8,0.8
496165.437500,5421458.500000,295.529999,0.8,0.8,0.8
497090.562500,5422100.000000,280.279999,0.8,0.8,0.8
496360.718750,5421770.000000,303.920013,0.8,0.8,0.8
496644.281250,5422046.000000,293.540009,0.8,0.8,0.8
496788.093750,5421464.000000,301.109985,0.8,0.8,0.8
497062.593750,5422193.000000,286.609985,0.8,0.8,0.8
495992.750000,5422222.500000,306.989990,0.8,0.8,0.8
496514.875000,5422174.000000,294.890015,0.8,0.8,0.8
496803.625000,5421625.500000,283.209991,0.8,0.8,0.8
496349.937500,5422128.500000,298.510010,0.8,0.8,0.8
497008.062500,5422297.500000,289.920013,0.8,0.8,0.8
496441.750000,5421614.000000,877.530029,0.8,0.8,0.8
496605.625000,5422121.000000,291.720001,0.8,0.8,0.8
496340.593750,5422034.000000,302.239990,0.8,0.8,0.8
497049.625000,5421523.500000,297.829987,0.8,0.8,0.8
496561.875000,5421607.500000,288.309998,0.8,0.8,0.8
496172.937500,5422106.000000,301.640015,0.8,0.8,0.8
496220.593750,5421589.000000,878.440002,0.8,0.8,0.8
496949.156250,5421553.000000,318.670013,0.8,0.8,0.8
496934.437500,5421631.000000,297.510010,0.8,0.8,0.8
496283.093750,5422112.500000,299.929993,0.8,0.8,0.8
496808.687500,5421389.000000,294.950012,0.8,0.8,0.8
496549.031250,5422198.500000,295.279999,0.8,0.8,0.8
496667.656250,5422048.000000,292.890015,0.8,0.8,0.8
496560.875000,5421540.500000,288.609985,0.8,0.8,0.8
496748.125000,5422185.000000,291.410004,0.8,0.8,0.8
496009.468750,5421674.000000,309.269989,0.8,0.8,0.8
496867.906250,5421382.000000,290.820007,0.8,0.8,0.8
496576.687500,5421937.000000,301.089996,0.8,0.8,0.8
496800.468750,5422048.500000,285.040009,0.8,0.8,0.8
496030.625000,5422029.500000,307.869995,0.8,0.8,0.8
496763.656250,5421504.500000,283.010010,0.8,0.8,0.8
496073.125000,5422047.000000,306.049988,0.8,0.8,0.8
496668.968750,5421754.000000,292.730011,0.8,0.8,0.8
496405.093750,5421753.500000,301.299988,0.8,0.8,0.8
496329.125000,5421781.500000,305.660004,0.8,0.8,0.8
497128.625000,5422034.000000,276.609985,0.8,0.8,0.8
496749.281250,5422198.000000,291.640015,0.8,0.8,0.8
496320.312500,5421733.500000,304.459991,0.8,0.8,0.8
496915.718750,5421500.500000,295.899994,0.8,0.8,0.8
496928.843750,5421588.000000,299.859985,0.8,0.8,0.8
496380.968750,5421684.000000,300.010010,0.8,0.8,0.8
497143.968750,5422261.000000,287.470001,0.8,0.8,0.8
495986.750000,5422266.000000,313.670013,0.8,0.8,0.8
496722.562500,5421399.000000,288.660004,0.8,0.8,0.8
496674.156250,5421791.500000,295.209991,0.8,0.8,0.8
496935.968750,5422176.000000,288.019989,0.8,0.8,0.8
496455.187500,5422243.000000,305.820007,0.8,0.8,0.8
496777.156250,5421915.500000,291.769989,0.8,0.8,0.8
496715.687500,5421707.000000,288.320007,0.8,0.8,0.8
496891.468750,5421620.500000,292.899994,0.8,0.8,0.8
496843.937500,5421479.500000,302.829987,0.8,0.8,0.8
496926.375000,5422044.000000,279.839996,0.8,0.8,0.8
496568.781250,5422013.500000,296.390015,0.8,0.8,0.8
496553.625000,5422256.000000,297.510010,0.8,0.8,0.8
496201.000000,5421666.500000,303.320007,0.8,0.8,0.8
496849.187500,5421428.500000,291.510010,0.8,0.8,0.8
495961.125000,5421395.500000,272.369995,0.8,0.8,0.8
496870.250000,5421630.000000,328.820007,0.8,0.8,0.8
496016.625000,5421989.500000,311.049988,0.8,0.8,0.8
496011.875000,5422165.500000,302.950012,0.8,0.8,0.8
496306.750000,5421563.500000,296.940002,0.8,0.8,0.8
496353.875000,5422021.500000,302.230011,0.8,0.8,0.8
497017.281250,5421552.000000,297.630005,0.8,0.8,0.8
496950.937500,5422038.000000,279.350006,0.8,0.8,0.8
496505.375000,5422086.500000,296.649994,0.8,0.8,0.8
496452.375000,5421434.000000,285.239990,0.8,0.8,0.8
496710.375000,5421966.000000,295.920013,0.8,0.8,0.8
496160.343750,5422150.000000,300.609985,0.8,0.8,0.8
496940.906250,5421977.500000,280.149994,0.8,0.8,0.8
496075.312500,5421418.000000,277.250000,0.8,0.8,0.8
496447.218750,5421679.000000,295.760010,0.8,0.8,0.8
496958.187500,5421957.500000,279.859985,0.8,0.8,0.8
496268.031250,5421971.000000,308.190002,0.8,0.8,0.8
496543.343750,5421425.000000,277.750000,0.8,0.8,0.8
496268.218750,5421448.500000,292.459991,0.8,0.8,0.8
496325.500000,5421769.500000,305.540009,0.8,0.8,0.8
496591.906250,5422045.000000,297.869995,0.8,0.8,0.8
497119.625000,5422212.500000,287.589996,0.8,0.8,0.8
496810.343750,5421662.000000,289.450012,0.8,0.8,0.8
495985.531250,5422236.500000,321.779999,0.8,0.8,0.8
496672.625000,5422223.500000,293.519989,0.8,0.8,0.8
497113.843750,5422316.500000,288.529999,0.8,0.8,0.8
496119.843750,5421517.000000,299.880005,0.8,0.8,0.8
496862.718750,5422025.000000,282.179993,0.8,0.8,0.8
497127.125000,5421748.000000,292.880005,0.8,0.8,0.8
496786.156250,5422290.500000,293.859985,0.8,0.8,0.8
496654.875000,5422224.000000,293.940002,0.8,0.8,0.8
496664.031250,5421590.000000,277.369995,0.8,0.8,0.8
496561.218750,5421791.000000,295.769989,0.8,0.8,0.8
496101.062500,5421618.500000,305.500000,0.8,0.8,0.8
496796.062500,5422247.500000,292.410004,0.8,0.8,0.8
497133.906250,5422277.000000,287.480011,0.8,0.8,0.8
496513.656250,5421554.500000,291.809998,0.8,0.8,0.8
496861.000000,5421432.500000,300.920013,0.8,0.8,0.8
496925.218750,5422084.000000,282.670013,0.8,0.8,0.8
497096.875000,5421696.000000,295.000000,0.8,0.8,0.8
496648.500000,5421770.000000,293.959991,0.8,0.8,0.8
496963.187500,5422019.500000,279.079987,0.8,0.8,0.8
496759.375000,5421452.500000,302.380005,0.8,0.8,0.8
496836.593750,5421577.500000,289.890015,0.8,0.8,0.8
497119.906250,5421572.000000,301.089996,0.8,0.8,0.8
496642.281250,5421511.000000,278.220001,0.8,0.8,0.8
496069.843750,5422214.000000,303.220001,0.8,0.8,0.8
496796.093750,5422147.500000,289.260010,0.8,0.8,0.8
496814.906250,5422099.500000,287.049988,0.8,0.8,0.8
496918.718750,5421489.500000,304.640015,0.8,0.8,0.8
496910.406250,5421503.500000,298.619995,0.8,0.8,0.8
496629.875000,5421405.500000,270.850006,0.8,0.8,0.8
496849.218750,5422251.500000,291.690002,0.8,0.8,0.8
496223.375000,5422048.500000,304.769989,0.8,0.8,0.8
496853.312500,5421421.000000,307.049988,0.8,0.8,0.8
496925.375000,5421361.500000,281.950012,0.8,0.8,0.8
496949.343750,5422086.000000,282.130005,0.8,0.8,0.8
496820.812500,5421627.000000,289.549988,0.8,0.8,0.8
496312.656250,5422164.500000,299.679993,0.8,0.8,0.8
496406.156250,5421638.000000,297.640015,0.8,0.8,0.8
496102.843750,5421499.000000,299.109985,0.8,0.8,0.8
497164.406250,5421617.500000,300.899994,0.8,0.8,0.8
496617.625000,5421491.000000,275.630005,0.8,0.8,0.8
496877.718750,5422110.500000,285.559998,0.8,0.8,0.8
496999.125000,5421754.500000,281.850006,0.8,0.8,0.8
496255.312500,5421712.000000,305.839996,0.8,0.8,0.8
496940.656250,5421700.000000,305.019989,0.8,0.8,0.8
497050.156250,5421741.500000,287.899994,0.8,0.8,0.8
496407.843750,5421443.000000,287.720001,0.8,0.8,0.8
496479.437500,5421750.500000,295.700012,0.8,0.8,0.8
496732.500000,5421473.500000,304.779999,0.8,0.8,0.8
496788.562500,5421484.000000,309.630005,0.8,0.8,0.8
496891.250000,5422178.500000,288.399994,0.8,0.8,0.8
496910.875000,5422055.500000,280.820007,0.8,0.8,0.8
497007.625000,5421609.500000,297.670013,0.8,0.8,0.8
496943.625000,5421424.000000,290.920013,0.8,0.8,0.8
496173.812500,5421970.000000,310.839996,0.8,0.8,0.8
496080.875000,5421556.500000,303.260010,0.8,0.8,0.8
496677.968750,5422255.500000,294.320007,0.8,0.8,0.8
496698.593750,5421972.000000,296.329987,0.8,0.8,0.8
496339.750000,5422019.000000,303.109985,0.8,0.8,0.8
496230.437500,5422133.500000,299.700012,0.8,0.8,0.8
497016.718750,5421704.000000,291.839996,0.8,0.8,0.8
496231.593750,5421762.500000,309.089996,0.8,0.8,0.8
496729.593750,5422329.500000,295.489990,0.8,0.8,0.8
496208.593750,5421943.000000,310.910004,0.8,0.8,0.8
496764.093750,5421606.000000,280.609985,0.8,0.8,0.8
497077.593750,5422123.000000,282.399994,0.8,0.8,0.8
496649.406250,5421579.500000,276.230011,0.8,0.8,0.8
496483.312500,5422162.000000,300.529999,0.8,0.8,0.8
496520.281250,5422271.000000,304.859985,0.8,0.8,0.8
496643.375000,5422104.000000,290.850006,0.8,0.8,0.8
496026.625000,5421721.500000,310.920013,0.8,0.8,0.8
496101.281250,5421737.000000,309.859985,0.8,0.8,0.8
496315.218750,5421580.000000,297.760010,0.8,0.8,0.8
496039.031250,5422219.500000,303.529999,0.8,0.8,0.8
496296.156250,5422214.500000,305.790009,0.8,0.8,0.8
496401.781250,5422123.500000,297.829987,0.8,0.8,0.8
496448.343750,5422215.000000,301.399994,0.8,0.8,0.8
496934.312500,5422043.000000,279.649994,0.8,0.8,0.8
496002.468750,5422258.000000,304.660004,0.8,0.8,0.8
496769.312500,5421496.500000,287.769989,0.8,0.8,0.8
495954.812500,5421755.000000,313.839996,0.8,0.8,0.8
496669.312500,5421633.500000,283.540009,0.8,0.8,0.8
496493.375000,5421388.000000,279.429993,0.8,0.8,0.8
496001.187500,5422228.500000,309.899994,0.8,0.8,0.8
496082.062500,5422246.000000,303.600006,0.8,0.8,0.8
496819.500000,5421630.000000,284.809998,0.8,0.8,0.8
496652.781250,5421356.000000,273.480011,0.8,0.8,0.8
496821.000000,5422071.500000,284.100006,0.8,0.8,0.8
496729.906250,5422298.000000,297.440002,0.8,0.8,0.8
495992.468750,5421637.500000,308.739990,0.8,0.8,0.8
497197.812500,5421732.000000,296.609985,0.8,0.8,0.8
496387.375000,5421486.500000,290.980011,0.8,0.8,0.8
496608.875000,5421653.000000,283.720001,0.8,0.8,0.8
496972.375000,5422069.000000,280.429993,0.8,0.8,0.8
496255.781250,5421583.000000,888.989990,0.8,0.8,0.8
495964.750000,5421494.000000,301.670013,0.8,0.8,0.8
496745.906250,5421480.000000,306.420013,0.8,0.8,0.8
496365.968750,5421582.000000,824.559998,0.8,0.8,0.8
496291.875000,5422161.500000,300.059998,0.8,0.8,0.8
496396.093750,5421364.000000,280.570007,0.8,0.8,0.8
496000.312500,5421970.000000,312.279999,0.8,0.8,0.8
496678.406250,5421609.500000,294.679993,0.8,0.8,0.8
496979.593750,5421550.500000,293.809998,0.8,0.8,0.8
495953.281250,5422101.500000,302.839996,0.8,0.8,0.8
496587.156250,5421444.000000,276.660004,0.8,0.8,0.8
497158.625000,5421420.500000,307.309998,0.8,0.8,0.8
496723.500000,5421693.000000,286.809998,0.8,0.8,0.8
497019.843750,5421437.500000,292.510010,0.8,0.8,0.8
496296.375000,5421366.500000,285.290009,0.8,0.8,0.8
496317.593750,5422295.000000,295.459991,0.8,0.8,0.8
496011.000000,5421686.000000,309.500000,0.8,0.8,0.8
497054.218750,5422068.000000,279.320007,0.8,0.8,0.8
496650.906250,5421562.000000,275.010010,0.8,0.8,0.8
497108.937500,5421796.500000,286.950012,0.8,0.8,0.8
496522.125000,5422207.000000,302.679993,0.8,0.8,0.8
496878.593750,5421620.500000,315.000000,0.8,0.8,0.8
496800.531250,5422000.500000,287.600006,0.8,0.8,0.8
496841.906250,5421508.000000,285.040009,0.8,0.8,0.8
496028.687500,5421589.000000,879.150024,0.8,0.8,0.8
496675.218750,5421731.500000,291.049988,0.8,0.8,0.8
496864.468750,5422323.000000,293.809998,0.8,0.8,0.8
496892.906250,5421410.000000,301.190002,0.8,0.8,0.8
496482.656250,5421404.500000,279.309998,0.8,0.8,0.8
496462.468750,5422309.500000,298.429993,0.8,0.8,0.8
496883.718750,5421518.000000,303.970001,0.8,0.8,0.8
496197.093750,5421987.500000,309.609985,0.8,0.8,0.8
496486.218750,5421718.000000,293.660004,0.8,0.8,0.8
495966.250000,5421759.000000,313.989990,0.8,0.8,0.8
496144.062500,5422087.000000,302.429993,0.8,0.8,0.8
496023.000000,5421454.000000,290.570007,0.8,0.8,0.8
496597.843750,5421413.000000,271.600006,0.8,0.8,0.8
496962.562500,5421354.000000,289.510010,0.8,0.8,0.8
496631.875000,5421375.500000,271.459991,0.8,0.8,0.8
496392.656250,5421473.000000,290.209991,0.8,0.8,0.8
497124.843750,5421678.000000,297.420013,0.8,0.8,0.8
496025.812500,5421367.000000,272.859985,0.8,0.8,0.8
496360.906250,5421930.500000,305.739990,0.8,0.8,0.8
496112.531250,5422180.500000,301.839996,0.8,0.8,0.8
496395.968750,5421600.500000,297.179993,0.8,0.8,0.8
496940.593750,5421560.500000,331.380005,0.8,0.8,0.8
496006.812500,5422224.500000,306.019989,0.8,0.8,0.8
497082.968750,5421566.000000,862.400024,0.8,0.8,0.8
497152.000000,5422009.000000,274.459991,0.8,0.8,0.8
496292.593750,5422331.500000,305.679993,0.8,0.8,0.8
496048.343750,5421734.500000,310.980011,0.8,0.8,0.8
496678.125000,5421382.000000,283.600006,0.8,0.8,0.8
496810.718750,5421460.000000,288.510010,0.8,0.8,0.8
496631.437500,5421476.500000,273.369995,0.8,0.8,0.8
496170.562500,5422028.000000,306.799988,0.8,0.8,0.8
496764.625000,5422022.500000,289.579987,0.8,0.8,0.8
496692.625000,5422025.000000,294.109985,0.8,0.8,0.8
496310.187500,5421602.500000,298.920013,0.8,0.8,0.8
