x,y,z,r,g,b
497606.625000,5421039.500000,351.200012,0.8,0.8,0.8
497045.812500,5421669.500000,308.570007,0.8,0.8,0.8
497943.968750,5421212.000000,320.380005,0.8,0.8,0.8
496843.875000,5421565.500000,841.130005,0.8,0.8,0.8
496484.593750,5421682.000000,292.489990,0.8,0.8,0.8
497045.718750,5421664.500000,305.720001,0.8,0.8,0.8
496620.718750,5421479.000000,280.470001,0.8,0.8,0.8
497926.562500,5421279.000000,314.279999,0.8,0.8,0.8
497435.218750,5420761.500000,320.690002,0.8,0.8,0.8
497510.437500,5420869.500000,317.380005,0.8,0.8,0.8
496986.843750,5421281.500000,287.910004,0.8,0.8,0.8
497515.843750,5421260.000000,299.859985,0.8,0.8,0.8
497255.875000,5421468.500000,302.959991,0.8,0.8,0.8
497219.062500,5420843.500000,309.049988,0.8,0.8,0.8
497002.875000,5421448.500000,292.239990,0.8,0.8,0.8
497891.968750,5421216.500000,318.769989,0.8,0.8,0.8
496501.718750,5421255.000000,279.220001,0.8,0.8,0.8
496590.937500,5421079.000000,880.820007,0.8,0.8,0.8
497371.031250,5421251.500000,294.589996,0.8,0.8,0.8
497644.937500,5421608.000000,311.579987,0.8,0.8,0.8
497280.062500,5421583.500000,306.019989,0.8,0.8,0.8
497333.281250,5421550.000000,307.059998,0.8,0.8,0.8
497648.781250,5421605.000000,311.660004,0.8,0.8,0.8
496731.531250,5421774.000000,291.459991,0.8,0.8,0.8
497209.468750,5421597.500000,304.029999,0.8,0.8,0.8
497566.531250,5421560.000000,310.500000,0.8,0.8,0.8
497010.625000,5420880.500000,313.880005,0.8,0.8,0.8
496727.375000,5421487.000000,284.350006,0.8,0.8,0.8
496640.250000,5420987.000000,303.489990,0.8,0.8,0.8
496802.343750,5421173.000000,308.309998,0.8,0.8,0.8
496773.718750,5421376.000000,282.269989,0.8,0.8,0.8
496926.281250,5421624.000000,297.540009,0.8,0.8,0.8
496479.781250,5421268.000000,288.779999,0.8,0.8,0.8
496475.468750,5421112.000000,301.329987,0.8,0.8,0.8
497176.187500,5421115.500000,295.309998,0.8,0.8,0.8
496373.656250,5421453.500000,288.910004,0.8,0.8,0.8
497579.562500,5421759.000000,304.000000,0.8,0.8,0.8
496768.062500,5421482.000000,303.790009,0.8,0.8,0.8
497363.968750,5421533.000000,307.489990,0.8,0.8,0.8
497118.593750,5421195.500000,289.739990,0.8,0.8,0.8
496585.750000,5421725.500000,289.989990,0.8,0.8,0.8
496859.187500,5421256.500000,286.519989,0.8,0.8,0.8
496446.312500,5421254.500000,291.190002,0.8,0.8,0.8
497836.781250,5421069.500000,327.799988,0.8,0.8,0.8
496454.750000,5421762.000000,298.510010,0.8,0.8,0.8
496394.656250,5421072.000000,902.130005,0.8,0.8,0.8
497354.531250,5421571.500000,307.559998,0.8,0.8,0.8
496619.937500,5421216.500000,290.279999,0.8,0.8,0.8
496469.562500,5421481.000000,290.679993,0.8,0.8,0.8
496882.843750,5421762.000000,300.950012,0.8,0.8,0.8
496679.187500,5421155.500000,295.260010,0.8,0.8,0.8
497266.406250,5421389.500000,298.290009,0.8,0.8,0.8
497261.812500,5420957.000000,302.799988,0.8,0.8,0.8
497411.156250,5420964.000000,313.489990,0.8,0.8,0.8
497655.218750,5421281.000000,303.670013,0.8,0.8,0.8
496515.750000,5420909.000000,303.489990,0.8,0.8,0.8
497329.843750,5420884.000000,314.390015,0.8,0.8,0.8
497712.250000,5421411.000000,299.179993,0.8,0.8,0.8
497335.312500,5421428.000000,301.839996,0.8,0.8,0.8
496575.218750,5420890.500000,317.799988,0.8,0.8,0.8
497174.437500,5421227.000000,289.910004,0.8,0.8,0.8
497003.843750,5421208.500000,295.630005,0.8,0.8,0.8
497359.875000,5421634.500000,306.149994,0.8,0.8,0.8
496900.250000,5421764.500000,292.540009,0.8,0.8,0.8
497504.781250,5421763.500000,301.980011,0.8,0.8,0.8
496949.000000,5420784.500000,312.250000,0.8,0.8,0.8
497704.437500,5421185.000000,316.700012,0.8,0.8,0.8
497006.531250,5421531.500000,330.950012,0.8,0.8,0.8
496689.937500,5420958.000000,303.309998,0.8,0.8,0.8
497022.343750,5421708.500000,292.079987,0.8,0.8,0.8
496410.468750,5421244.000000,291.339996,0.8,0.8,0.8
497865.187500,5421768.000000,309.320007,0.8,0.8,0.8
497227.562500,5421444.500000,302.420013,0.8,0.8,0.8
496637.750000,5421177.000000,294.540009,0.8,0.8,0.8
497192.281250,5421454.500000,297.609985,0.8,0.8,0.8
496641.875000,5420916.500000,313.950012,0.8,0.8,0.8
497337.593750,5420993.000000,309.600006,0.8,0.8,0.8
496703.125000,5421793.000000,290.700012,0.8,0.8,0.8
496769.125000,5421500.000000,294.179993,0.8,0.8,0.8
497453.875000,5420943.000000,315.540009,0.8,0.8,0.8
496814.062500,5421655.500000,289.450012,0.8,0.8,0.8
496789.187500,5420792.500000,310.950012,0.8,0.8,0.8
497416.937500,5421460.500000,305.910004,0.8,0.8,0.8
497483.468750,5421756.000000,301.510010,0.8,0.8,0.8
497702.437500,5421704.500000,309.920013,0.8,0.8,0.8
497585.062500,5420905.000000,321.410004,0.8,0.8,0.8
497354.875000,5421796.000000,298.880005,0.8,0.8,0.8
496867.250000,5421071.000000,302.519989,0.8,0.8,0.8
497048.531250,5421129.000000,296.230011,0.8,0.8,0.8
497106.718750,5420970.000000,300.750000,0.8,0.8,0.8
497631.437500,5420768.500000,325.750000,0.8,0.8,0.8
496949.687500,5420882.500000,305.709991,0.8,0.8,0.8
497402.750000,5421689.000000,315.510010,0.8,0.8,0.8
496845.718750,5421414.000000,292.880005,0.8,0.8,0.8
496493.468750,5421460.000000,286.309998,0.8,0.8,0.8
497112.625000,5420992.000000,300.140015,0.8,0.8,0.8
496590.718750,5421233.000000,288.440002,0.8,0.8,0.8
496599.781250,5420992.500000,315.670013,0.8,0.8,0.8
496612.281250,5421491.000000,276.399994,0.8,0.8,0.8
497142.968750,5421266.000000,286.679993,0.8,0.8,0.8
497185.468750,5421707.500000,307.489990,0.8,0.8,0.8
496516.718750,5421053.000000,318.399994,0.8,0.8,0.8
497410.906250,5421201.000000,299.670013,0.8,0.8,0.8
496481.125000,5421436.500000,284.369995,0.8,0.8,0.8
496801.343750,5421297.500000,280.899994,0.8,0.8,0.8
497252.000000,5421471.000000,302.980011,0.8,0.8,0.8
497034.937500,5421645.000000,299.589996,0.8,0.8,0.8
496673.062500,5421683.500000,296.640015,0.8,0.8,0.8
497831.625000,5421053.000000,328.440002,0.8,0.8,0.8
496382.156250,5421182.500000,286.970001,0.8,0.8,0.8
497041.531250,5420781.500000,312.149994,0.8,0.8,0.8
497154.125000,5420911.000000,309.109985,0.8,0.8,0.8
496972.281250,5421273.500000,285.640015,0.8,0.8,0.8
496888.250000,5421092.000000,302.049988,0.8,0.8,0.8
497346.687500,5421165.500000,302.839996,0.8,0.8,0.8
497906.250000,5421577.000000,308.829987,0.8,0.8,0.8
496672.500000,5421738.500000,291.619995,0.8,0.8,0.8
497897.593750,5421729.500000,310.769989,0.8,0.8,0.8
496515.875000,5420945.500000,303.160004,0.8,0.8,0.8
496640.687500,5421032.500000,881.280029,0.8,0.8,0.8
497374.468750,5421512.000000,307.630005,0.8,0.8,0.8
497769.718750,5421755.000000,319.910004,0.8,0.8,0.8
497278.687500,5421258.000000,332.559998,0.8,0.8,0.8
497180.937500,5421589.000000,303.320007,0.8,0.8,0.8
497257.312500,5421070.000000,301.739990,0.8,0.8,0.8
496873.937500,5420964.000000,304.399994,0.8,0.8,0.8
497100.000000,5421159.000000,292.260010,0.8,0.8,0.8
497586.937500,5421447.000000,304.079987,0.8,0.8,0.8
497638.093750,5420879.500000,332.510010,0.8,0.8,0.8
496806.218750,5421038.500000,303.549988,0.8,0.8,0.8
496962.875000,5421382.000000,290.070007,0.8,0.8,0.8
497724.250000,5421106.000000,322.790009,0.8,0.8,0.8
497562.656250,5421296.500000,296.489990,0.8,0.8,0.8
496934.000000,5421393.500000,296.899994,0.8,0.8,0.8
496967.593750,5421161.000000,293.700012,0.8,0.8,0.8
496592.687500,5421383.000000,274.299988,0.8,0.8,0.8
496547.312500,5421290.000000,274.279999,0.8,0.8,0.8
497690.156250,5421719.500000,316.679993,0.8,0.8,0.8
496601.281250,5421388.500000,277.760010,0.8,0.8,0.8
497242.093750,5421254.500000,297.399994,0.8,0.8,0.8
497000.531250,5421787.500000,280.480011,0.8,0.8,0.8
497430.593750,5421164.500000,302.459991,0.8,0.8,0.8
497537.093750,5421599.000000,310.540009,0.8,0.8,0.8
496839.343750,5420955.500000,310.890015,0.8,0.8,0.8
497244.125000,5421536.000000,304.799988,0.8,0.8,0.8
497910.218750,5421422.000000,302.809998,0.8,0.8,0.8
497231.062500,5421261.000000,296.029999,0.8,0.8,0.8
497018.343750,5421523.500000,294.320007,0.8,0.8,0.8
497057.218750,5421726.000000,290.809998,0.8,0.8,0.8
496693.875000,5421372.000000,289.369995,0.8,0.8,0.8
497806.281250,5421759.500000,315.290009,0.8,0.8,0.8
496656.093750,5421605.500000,285.470001,0.8,0.8,0.8
496854.875000,5421553.500000,822.940002,0.8,0.8,0.8
497530.343750,5421451.000000,304.809998,0.8,0.8,0.8
497743.218750,5420883.500000,326.989990,0.8,0.8,0.8
496784.906250,5421148.500000,297.119995,0.8,0.8,0.8
497058.875000,5420900.500000,304.329987,0.8,0.8,0.8
497040.031250,5421694.000000,290.700012,0.8,0.8,0.8
497398.593750,5420751.000000,316.679993,0.8,0.8,0.8
496818.406250,5420999.000000,314.730011,0.8,0.8,0.8
497345.156250,5420990.500000,310.250000,0.8,0.8,0.8
496900.718750,5421059.000000,309.869995,0.8,0.8,0.8
496888.406250,5420954.000000,309.989990,0.8,0.8,0.8
497039.593750,5420847.000000,307.070007,0.8,0.8,0.8
496895.687500,5420944.000000,318.549988,0.8,0.8,0.8
497555.125000,5421705.000000,306.950012,0.8,0.8,0.8
497270.125000,5420781.000000,313.519989,0.8,0.8,0.8
497546.031250,5421660.000000,308.959991,0.8,0.8,0.8
497585.375000,5420870.000000,320.790009,0.8,0.8,0.8
497750.218750,5421705.500000,310.059998,0.8,0.8,0.8
497146.843750,5421590.500000,305.630005,0.8,0.8,0.8
496744.812500,5421269.500000,283.630005,0.8,0.8,0.8
496970.062500,5421526.500000,293.769989,0.8,0.8,0.8
497897.687500,5421471.000000,301.640015,0.8,0.8,0.8
497745.000000,5421182.500000,320.899994,0.8,0.8,0.8
497569.031250,5420969.000000,321.559998,0.8,0.8,0.8
497276.656250,5421100.500000,301.760010,0.8,0.8,0.8
497380.687500,5420935.000000,310.579987,0.8,0.8,0.8
496551.718750,5420934.500000,310.549988,0.8,0.8,0.8
496923.968750,5420915.500000,304.359985,0.8,0.8,0.8
497461.500000,5420908.000000,315.670013,0.8,0.8,0.8
497377.781250,5421045.000000,311.809998,0.8,0.8,0.8
497887.312500,5421435.000000,300.359985,0.8,0.8,0.8
496485.718750,5420865.000000,306.839996,0.8,0.8,0.8
496916.687500,5421780.000000,288.339996,0.8,0.8,0.8
497543.125000,5421551.000000,310.220001,0.8,0.8,0.8
497200.937500,5421439.000000,298.179993,0.8,0.8,0.8
496456.625000,5420913.000000,302.989990,0.8,0.8,0.8
496924.250000,5421182.500000,294.820007,0.8,0.8,0.8
497528.125000,5421215.000000,310.339996,0.8,0.8,0.8
496847.406250,5421171.000000,299.220001,0.8,0.8,0.8
497608.937500,5421730.000000,306.700012,0.8,0.8,0.8
496781.343750,5421152.500000,296.709991,0.8,0.8,0.8
497257.625000,5421577.500000,305.390015,0.8,0.8,0.8
496896.375000,5421693.500000,297.320007,0.8,0.8,0.8
497949.531250,5421090.500000,328.709991,0.8,0.8,0.8
496765.156250,5421638.500000,285.809998,0.8,0.8,0.8
496387.718750,5421574.000000,884.330017,0.8,0.8,0.8
497210.218750,5420949.000000,301.600006,0.8,0.8,0.8
497016.375000,5421624.000000,305.480011,0.8,0.8,0.8
497533.312500,5421110.500000,303.950012,0.8,0.8,0.8
497334.968750,5421545.000000,307.100006,0.8,0.8,0.8
497482.156250,5421469.000000,306.709991,0.8,0.8,0.8
497008.781250,5421591.500000,297.029999,0.8,0.8,0.8
497290.531250,5420789.500000,312.559998,0.8,0.8,0.8
497398.156250,5421269.500000,309.500000,0.8,0.8,0.8
497325.187500,5421780.000000,301.649994,0.8,0.8,0.8
497506.218750,5420889.500000,317.320007,0.8,0.8,0.8
496779.593750,5421711.000000,290.089996,0.8,0.8,0.8
496615.281250,5420869.000000,315.570007,0.8,0.8,0.8
496917.937500,5421402.000000,307.649994,0.8,0.8,0.8
496521.750000,5421794.000000,295.440002,0.8,0.8,0.8
497566.781250,5421157.500000,302.730011,0.8,0.8,0.8
497689.500000,5421429.000000,301.579987,0.8,0.8,0.8
496525.593750,5421131.000000,299.739990,0.8,0.8,0.8
496716.750000,5421232.000000,290.079987,0.8,0.8,0.8
496558.656250,5421160.500000,295.299988,0.8,0.8,0.8
496593.218750,5421268.500000,281.570007,0.8,0.8,0.8
496837.687500,5421112.500000,299.760010,0.8,0.8,0.8
496734.062500,5421122.000000,302.920013,0.8,0.8,0.8
497193.875000,5421715.500000,306.070007,0.8,0.8,0.8
496852.406250,5421077.000000,302.279999,0.8,0.8,0.8
497423.468750,5421731.000000,302.260010,0.8,0.8,0.8
496803.406250,5420897.000000,308.739990,0.8,0.8,0.8
496552.468750,5421102.000000,898.159973,0.8,0.8,0.8
497124.937500,5421046.500000,295.970001,0.8,0.8,0.8
496926.187500,5420970.000000,304.000000,0.8,0.8,0.8
496841.093750,5421203.000000,293.010010,0.8,0.8,0.8
497916.843750,5420924.500000,332.040009,0.8,0.8,0.8
497193.875000,5420852.500000,315.980011,0.8,0.8,0.8
497504.093750,5421589.000000,310.160004,0.8,0.8,0.8
497023.812500,5421374.000000,290.820007,0.8,0.8,0.8
497675.312500,5421486.500000,307.799988,0.8,0.8,0.8
496589.062500,5421463.000000,278.570007,0.8,0.8,0.8
497018.500000,5420971.000000,307.760010,0.8,0.8,0.8
497299.312500,5421480.000000,308.160004,0.8,0.8,0.8
496545.437500,5420940.000000,306.700012,0.8,0.8,0.8
497484.625000,5421214.500000,301.790009,0.8,0.8,0.8
497292.625000,5421716.500000,300.750000,0.8,0.8,0.8
496795.781250,5421374.500000,286.779999,0.8,0.8,0.8
496476.031250,5421233.500000,281.850006,0.8,0.8,0.8
496733.843750,5420975.500000,304.350006,0.8,0.8,0.8
496814.718750,5421105.000000,299.959991,0.8,0.8,0.8
497822.093750,5421059.500000,327.950012,0.8,0.8,0.8
496530.875000,5421004.500000,302.540009,0.8,0.8,0.8
496379.562500,5421502.500000,292.269989,0.8,0.8,0.8
497583.125000,5421525.500000,309.320007,0.8,0.8,0.8
497140.375000,5421757.000000,300.619995,0.8,0.8,0.8
497150.250000,5420978.500000,299.940002,0.8,0.8,0.8
497549.000000,5421295.000000,296.179993,0.8,0.8,0.8
497854.312500,5421719.500000,310.579987,0.8,0.8,0.8
497054.187500,5421119.000000,296.929993,0.8,0.8,0.8
497237.562500,5421506.000000,304.000000,0.8,0.8,0.8
497285.750000,5421579.500000,311.890015,0.8,0.8,0.8
497083.593750,5420996.000000,301.220001,0.8,0.8,0.8
497340.875000,5421265.000000,294.609985,0.8,0.8,0.8
497445.937500,5421426.500000,302.839996,0.8,0.8,0.8
497743.750000,5421634.000000,311.679993,0.8,0.8,0.8
497202.625000,5421750.500000,295.690002,0.8,0.8,0.8
497850.125000,5420948.000000,330.869995,0.8,0.8,0.8
497250.375000,5421767.500000,301.730011,0.8,0.8,0.8
496553.937500,5421251.000000,286.649994,0.8,0.8,0.8
496507.375000,5420994.500000,305.600006,0.8,0.8,0.8
496432.437500,5421518.500000,292.309998,0.8,0.8,0.8
496686.562500,5421380.000000,277.769989,0.8,0.8,0.8
497117.625000,5421050.000000,296.559998,0.8,0.8,0.8
497317.156250,5421577.000000,306.769989,0.8,0.8,0.8
497908.656250,5421467.500000,301.480011,0.8,0.8,0.8
497116.906250,5420878.500000,304.660004,0.8,0.8,0.8
496981.375000,5421608.500000,887.059998,0.8,0.8,0.8
496864.656250,5421433.500000,311.790009,0.8,0.8,0.8
497392.250000,5421067.000000,314.359985,0.8,0.8,0.8
496737.875000,5421462.000000,294.519989,0.8,0.8,0.8
497053.375000,5421034.500000,308.570007,0.8,0.8,0.8
497483.187500,5421464.000000,306.380005,0.8,0.8,0.8
496965.187500,5421083.500000,300.470001,0.8,0.8,0.8
496828.875000,5421101.000000,300.459991,0.8,0.8,0.8
497444.906250,5421776.000000,299.290009,0.8,0.8,0.8
497911.156250,5421805.500000,308.149994,0.8,0.8,0.8
496597.968750,5421531.000000,284.450012,0.8,0.8,0.8
496861.656250,5421461.000000,307.579987,0.8,0.8,0.8
496743.468750,5420901.500000,305.820007,0.8,0.8,0.8
497888.562500,5421405.500000,301.029999,0.8,0.8,0.8
496794.812500,5421785.000000,297.220001,0.8,0.8,0.8
497080.593750,5421793.000000,284.019989,0.8,0.8,0.8
497265.812500,5420914.500000,305.160004,0.8,0.8,0.8
496664.687500,5421494.500000,280.640015,0.8,0.8,0.8
497490.250000,5421051.000000,317.559998,0.8,0.8,0.8
497612.375000,5421125.500000,316.529999,0.8,0.8,0.8
496874.031250,5421148.000000,305.970001,0.8,0.8,0.8
497233.625000,5421277.000000,289.489990,0.8,0.8,0.8
496629.968750,5421277.000000,289.700012,0.8,0.8,0.8
497562.187500,5421644.500000,309.950012,0.8,0.8,0.8
496924.656250,5421783.500000,285.690002,0.8,0.8,0.8
497795.750000,5421433.000000,300.339996,0.8,0.8,0.8
497754.750000,5421256.000000,311.450012,0.8,0.8,0.8
497159.343750,5421426.000000,297.779999,0.8,0.8,0.8
496569.875000,5421614.000000,287.359985,0.8,0.8,0.8
497308.406250,5420765.500000,322.079987,0.8,0.8,0.8
497419.125000,5421394.000000,297.760010,0.8,0.8,0.8
497220.187500,5421701.500000,299.609985,0.8,0.8,0.8
497174.968750,5421023.000000,301.540009,0.8,0.8,0.8
497876.187500,5420780.500000,332.510010,0.8,0.8,0.8
497585.062500,5421266.000000,302.000000,0.8,0.8,0.8
496570.281250,5421578.500000,882.400024,0.8,0.8,0.8
496532.812500,5421157.000000,291.899994,0.8,0.8,0.8
497923.062500,5421124.000000,326.570007,0.8,0.8,0.8
497490.000000,5421276.000000,296.399994,0.8,0.8,0.8
497111.531250,5421445.500000,297.570007,0.8,0.8,0.8
496544.218750,5420866.500000,304.420013,0.8,0.8,0.8
497923.406250,5421692.500000,311.420013,0.8,0.8,0.8
497917.187500,5421065.000000,329.510010,0.8,0.8,0.8
497873.718750,5420875.000000,330.279999,0.8,0.8,0.8
497764.125000,5420953.000000,327.459991,0.8,0.8,0.8
496780.406250,5421588.000000,285.239990,0.8,0.8,0.8
497594.718750,5421802.500000,310.619995,0.8,0.8,0.8
497003.968750,5421368.500000,285.100006,0.8,0.8,0.8
497689.500000,5421533.500000,310.470001,0.8,0.8,0.8
496668.187500,5421272.000000,284.179993,0.8,0.8,0.8
497699.875000,5421392.000000,298.429993,0.8,0.8,0.8
497644.906250,5420995.000000,324.320007,0.8,0.8,0.8
497765.750000,5421276.500000,310.230011,0.8,0.8,0.8
497264.312500,5421730.500000,298.480011,0.8,0.8,0.8
497799.343750,5421077.500000,326.500000,0.8,0.8,0.8
496901.062500,5421572.000000,875.239990,0.8,0.8,0.8
496894.312500,5421013.000000,305.859985,0.8,0.8,0.8
497923.156250,5420924.000000,332.230011,0.8,0.8,0.8
497727.062500,5421375.000000,297.779999,0.8,0.8,0.8
496641.312500,5421278.000000,283.820007,0.8,0.8,0.8
497166.468750,5421660.000000,300.829987,0.8,0.8,0.8
496777.156250,5420770.000000,322.250000,0.8,0.8,0.8
496885.062500,5421711.000000,297.540009,0.8,0.8,0.8
496468.656250,5421254.000000,288.470001,0.8,0.8,0.8
497754.968750,5421771.500000,308.269989,0.8,0.8,0.8
497778.500000,5421017.000000,350.559998,0.8,0.8,0.8
497565.843750,5420957.000000,321.390015,0.8,0.8,0.8
497274.812500,5421502.500000,304.790009,0.8,0.8,0.8
497627.062500,5421053.000000,323.279999,0.8,0.8,0.8
496367.125000,5421552.500000,295.480011,0.8,0.8,0.8
496522.062500,5421476.000000,294.630005,0.8,0.8,0.8
496924.468750,5421573.500000,298.019989,0.8,0.8,0.8
497269.437500,5420849.500000,310.559998,0.8,0.8,0.8
497188.375000,5421783.000000,291.029999,0.8,0.8,0.8
497924.437500,5421006.000000,331.579987,0.8,0.8,0.8
497035.125000,5421431.000000,292.790009,0.8,0.8,0.8
496788.125000,5421579.500000,279.059998,0.8,0.8,0.8
497345.343750,5420982.500000,309.899994,0.8,0.8,0.8
497326.250000,5421675.500000,301.890015,0.8,0.8,0.8
496651.375000,5421426.000000,275.690002,0.8,0.8,0.8
496802.281250,5421565.000000,839.700012,0.8,0.8,0.8
496480.125000,5421044.000000,888.770020,0.8,0.8,0.8
497699.218750,5421091.500000,323.059998,0.8,0.8,0.8
496419.375000,5421038.000000,888.580017,0.8,0.8,0.8
496852.500000,5421410.500000,292.899994,0.8,0.8,0.8
497456.656250,5421747.500000,301.760010,0.8,0.8,0.8
496675.281250,5421436.500000,276.390015,0.8,0.8,0.8
496601.187500,5420894.000000,314.839996,0.8,0.8,0.8
496634.500000,5421448.500000,272.899994,0.8,0.8,0.8
496583.593750,5421796.000000,296.369995,0.8,0.8,0.8
497888.875000,5421009.500000,380.929993,0.8,0.8,0.8
497940.125000,5421555.500000,306.630005,0.8,0.8,0.8
497702.625000,5421268.000000,307.040009,0.8,0.8,0.8
497641.468750,5421583.500000,311.579987,0.8,0.8,0.8
496609.218750,5421404.500000,270.540009,0.8,0.8,0.8
496750.343750,5420957.500000,308.170013,0.8,0.8,0.8
496997.250000,5420754.500000,322.470001,0.8,0.8,0.8
497074.843750,5421054.000000,305.440002,0.8,0.8,0.8
496895.281250,5420936.000000,304.700012,0.8,0.8,0.8
497379.937500,5421105.000000,311.940002,0.8,0.8,0.8
497190.343750,5420781.000000,313.010010,0.8,0.8,0.8
497352.468750,5420881.500000,310.230011,0.8,0.8,0.8
496460.937500,5421090.500000,297.630005,0.8,0.8,0.8
497935.437500,5421582.000000,308.660004,0.8,0.8,0.8
496482.562500,5421263.000000,278.589996,0.8,0.8,0.8
497280.781250,5421234.500000,293.899994,0.8,0.8,0.8
497088.343750,5420911.000000,314.600006,0.8,0.8,0.8
496745.187500,5421369.500000,292.950012,0.8,0.8,0.8
496520.593750,5421238.000000,284.709991,0.8,0.8,0.8
496841.031250,5421407.000000,303.119995,0.8,0.8,0.8
497182.187500,5420979.500000,299.989990,0.8,0.8,0.8
497267.625000,5421422.000000,300.269989,0.8,0.8,0.8
497378.406250,5420917.000000,310.109985,0.8,0.8,0.8
497297.593750,5420941.000000,305.540009,0.8,0.8,0.8
497068.718750,5420880.000000,310.890015,0.8,0.8,0.8
496921.125000,5421081.000000,301.690002,0.8,0.8,0.8
496895.218750,5420857.500000,317.329987,0.8,0.8,0.8
496769.187500,5421016.000000,309.230011,0.8,0.8,0.8
497627.750000,5421768.000000,304.920013,0.8,0.8,0.8
497133.343750,5421511.500000,301.779999,0.8,0.8,0.8
497004.406250,5421789.000000,274.630005,0.8,0.8,0.8
497316.625000,5421553.500000,306.779999,0.8,0.8,0.8
497391.406250,5421535.000000,308.109985,0.8,0.8,0.8
497209.687500,5421730.500000,296.899994,0.8,0.8,0.8
496763.468750,5421498.500000,282.160004,0.8,0.8,0.8
497437.125000,5421001.500000,315.500000,0.8,0.8,0.8
497219.031250,5420849.500000,311.049988,0.8,0.8,0.8
497150.406250,5421794.500000,293.790009,0.8,0.8,0.8
496680.437500,5421610.500000,291.290009,0.8,0.8,0.8
496430.718750,5421043.000000,910.580017,0.8,0.8,0.8
497718.187500,5420977.500000,328.230011,0.8,0.8,0.8
496804.968750,5421663.000000,289.019989,0.8,0.8,0.8
497309.906250,5421192.000000,296.790009,0.8,0.8,0.8
496742.031250,5421257.500000,284.450012,0.8,0.8,0.8
497452.281250,5421280.000000,302.609985,0.8,0.8,0.8
496662.312500,5421098.000000,301.649994,0.8,0.8,0.8
496623.375000,5421474.500000,273.559998,0.8,0.8,0.8
496773.500000,5421370.500000,281.329987,0.8,0.8,0.8
496971.750000,5420771.500000,312.709991,0.8,0.8,0.8
496598.625000,5421784.500000,295.410004,0.8,0.8,0.8
496862.531250,5421151.000000,305.869995,0.8,0.8,0.8
496914.125000,5421277.000000,297.869995,0.8,0.8,0.8
496805.031250,5421409.500000,285.160004,0.8,0.8,0.8
497490.406250,5420935.500000,317.779999,0.8,0.8,0.8
496563.625000,5420855.500000,306.450012,0.8,0.8,0.8
496893.000000,5421463.500000,319.350006,0.8,0.8,0.8
496910.406250,5421503.500000,298.619995,0.8,0.8,0.8
496650.406250,5421173.000000,294.440002,0.8,0.8,0.8
496725.656250,5420885.500000,305.940002,0.8,0.8,0.8
496749.656250,5421142.000000,296.200012,0.8,0.8,0.8
496700.968750,5421645.500000,284.010010,0.8,0.8,0.8
497592.906250,5421588.000000,311.260010,0.8,0.8,0.8
497089.062500,5421784.500000,285.720001,0.8,0.8,0.8
497695.593750,5421611.000000,311.890015,0.8,0.8,0.8
497363.406250,5421293.000000,299.420013,0.8,0.8,0.8
497673.843750,5421602.500000,312.119995,0.8,0.8,0.8
496429.187500,5421692.500000,321.269989,0.8,0.8,0.8
497471.937500,5421579.500000,309.660004,0.8,0.8,0.8
497090.875000,5421030.000000,299.880005,0.8,0.8,0.8
497558.562500,5420927.500000,320.570007,0.8,0.8,0.8
497500.937500,5421057.500000,317.920013,0.8,0.8,0.8
497283.312500,5421813.000000,296.440002,0.8,0.8,0.8
497888.781250,5421003.000000,366.250000,0.8,0.8,0.8
497226.968750,5421399.500000,296.899994,0.8,0.8,0.8
496513.781250,5421396.500000,281.540009,0.8,0.8,0.8
496528.968750,5421281.000000,285.230011,0.8,0.8,0.8
496941.437500,5421196.500000,293.589996,0.8,0.8,0.8
497769.125000,5421095.500000,324.570007,0.8,0.8,0.8
497567.093750,5421746.000000,304.649994,0.8,0.8,0.8
496802.281250,5421130.000000,298.100006,0.8,0.8,0.8
497903.593750,5421499.500000,303.380005,0.8,0.8,0.8
497178.468750,5421035.500000,298.089996,0.8,0.8,0.8
497033.093750,5420845.000000,307.190002,0.8,0.8,0.8
496757.468750,5420854.500000,307.420013,0.8,0.8,0.8
496878.468750,5421539.500000,297.779999,0.8,0.8,0.8
496404.968750,5421450.000000,288.459991,0.8,0.8,0.8
496464.625000,5421616.000000,294.970001,0.8,0.8,0.8
496878.375000,5421043.500000,306.390015,0.8,0.8,0.8
497335.812500,5421068.000000,308.200012,0.8,0.8,0.8
496675.500000,5421083.000000,904.400024,0.8,0.8,0.8
497145.843750,5421647.500000,301.179993,0.8,0.8,0.8
496625.500000,5421420.500000,268.869995,0.8,0.8,0.8
496406.187500,5420937.000000,307.559998,0.8,0.8,0.8
496690.031250,5421005.000000,303.859985,0.8,0.8,0.8
497635.593750,5421780.500000,308.880005,0.8,0.8,0.8
496487.093750,5421283.000000,275.720001,0.8,0.8,0.8
497839.468750,5421035.500000,329.209991,0.8,0.8,0.8
497007.875000,5421246.500000,289.679993,0.8,0.8,0.8
497564.281250,5421126.500000,306.760010,0.8,0.8,0.8
497605.500000,5421626.500000,310.869995,0.8,0.8,0.8
496756.562500,5420752.000000,312.040009,0.8,0.8,0.8
496634.562500,5421277.000000,290.769989,0.8,0.8,0.8
497875.125000,5421171.000000,321.700012,0.8,0.8,0.8
497403.781250,5421748.000000,299.970001,0.8,0.8,0.8
496386.906250,5421171.000000,288.160004,0.8,0.8,0.8
496863.656250,5421379.000000,312.119995,0.8,0.8,0.8
497933.812500,5420934.000000,332.540009,0.8,0.8,0.8
496385.625000,5421216.000000,282.730011,0.8,0.8,0.8
496833.875000,5421668.000000,290.980011,0.8,0.8,0.8
497784.531250,5421072.500000,326.339996,0.8,0.8,0.8
496568.375000,5421178.500000,292.890015,0.8,0.8,0.8
497186.468750,5420760.000000,320.579987,0.8,0.8,0.8
496615.000000,5421568.000000,282.179993,0.8,0.8,0.8
496534.375000,5420970.500000,303.410004,0.8,0.8,0.8
497054.406250,5421506.500000,297.779999,0.8,0.8,0.8
497747.843750,5421376.000000,298.070007,0.8,0.8,0.8
496533.687500,5421549.000000,291.019989,0.8,0.8,0.8
496552.125000,5421691.000000,319.839996,0.8,0.8,0.8
497627.343750,5420888.000000,327.149994,0.8,0.8,0.8
497282.968750,5421158.500000,299.089996,0.8,0.8,0.8
496939.500000,5421434.000000,299.529999,0.8,0.8,0.8
497112.500000,5421019.500000,299.750000,0.8,0.8,0.8
496393.843750,5421657.500000,298.579987,0.8,0.8,0.8
497028.687500,5421557.500000,310.899994,0.8,0.8,0.8
496914.718750,5421374.000000,286.559998,0.8,0.8,0.8
496367.906250,5421043.000000,301.309998,0.8,0.8,0.8
497666.000000,5421108.500000,322.089996,0.8,0.8,0.8
497073.218750,5421726.500000,289.470001,0.8,0.8,0.8
497484.437500,5421055.500000,317.160004,0.8,0.8,0.8
496464.531250,5421093.500000,297.559998,0.8,0.8,0.8
497631.687500,5421397.500000,297.730011,0.8,0.8,0.8
497503.125000,5421731.000000,313.989990,0.8,0.8,0.8
496847.562500,5421376.500000,307.410004,0.8,0.8,0.8
497174.531250,5420866.000000,307.010010,0.8,0.8,0.8
497660.656250,5421094.500000,322.950012,0.8,0.8,0.8
496637.937500,5421024.000000,302.709991,0.8,0.8,0.8
496415.781250,5421694.500000,297.989990,0.8,0.8,0.8
496576.843750,5421451.500000,278.910004,0.8,0.8,0.8
497902.687500,5421554.000000,307.049988,0.8,0.8,0.8
497411.312500,5421683.500000,304.690002,0.8,0.8,0.8
497798.218750,5420927.500000,332.040009,0.8,0.8,0.8
496386.468750,5421256.500000,277.970001,0.8,0.8,0.8
497010.687500,5420886.000000,316.019989,0.8,0.8,0.8
497528.406250,5421641.000000,309.760010,0.8,0.8,0.8
497441.812500,5421049.500000,315.269989,0.8,0.8,0.8
497681.875000,5421043.000000,324.799988,0.8,0.8,0.8
497578.750000,5421469.500000,305.859985,0.8,0.8,0.8
497038.125000,5420971.000000,302.010010,0.8,0.8,0.8
497028.687500,5421672.500000,293.769989,0.8,0.8,0.8
497643.625000,5421395.500000,297.510010,0.8,0.8,0.8
496799.968750,5420868.000000,306.690002,0.8,0.8,0.8
497222.062500,5421396.000000,295.950012,0.8,0.8,0.8
497382.656250,5420893.000000,310.660004,0.8,0.8,0.8
497355.375000,5420751.000000,314.140015,0.8,0.8,0.8
497899.593750,5421196.500000,320.529999,0.8,0.8,0.8
496757.968750,5421400.000000,293.179993,0.8,0.8,0.8
497784.593750,5421273.500000,310.500000,0.8,0.8,0.8
496717.781250,5421050.500000,307.989990,0.8,0.8,0.8
497245.593750,5421263.000000,295.730011,0.8,0.8,0.8
497279.531250,5421623.500000,304.760010,0.8,0.8,0.8
496915.187500,5421410.500000,310.950012,0.8,0.8,0.8
497272.750000,5420882.000000,314.820007,0.8,0.8,0.8
496776.125000,5420998.500000,310.529999,0.8,0.8,0.8
496810.625000,5421559.000000,285.459991,0.8,0.8,0.8
497396.406250,5421154.500000,330.320007,0.8,0.8,0.8
496453.937500,5421271.000000,280.839996,0.8,0.8,0.8
496895.968750,5421428.000000,310.640015,0.8,0.8,0.8
497388.875000,5421689.500000,311.760010,0.8,0.8,0.8
496585.906250,5421695.000000,317.010010,0.8,0.8,0.8
497143.312500,5421609.500000,315.000000,0.8,0.8,0.8
497037.718750,5421428.500000,296.410004,0.8,0.8,0.8
496859.937500,5420866.500000,310.390015,0.8,0.8,0.8
496560.656250,5421057.000000,301.640015,0.8,0.8,0.8
497073.625000,5421670.500000,310.920013,0.8,0.8,0.8
497943.125000,5421679.500000,311.510010,0.8,0.8,0.8
496636.906250,5421516.000000,274.500000,0.8,0.8,0.8
496834.968750,5421630.000000,286.519989,0.8,0.8,0.8
496542.250000,5421060.000000,905.840027,0.8,0.8,0.8
496731.843750,5421496.000000,282.549988,0.8,0.8,0.8
497819.875000,5421232.000000,315.519989,0.8,0.8,0.8
496788.781250,5421084.000000,308.559998,0.8,0.8,0.8
496909.406250,5421156.000000,305.899994,0.8,0.8,0.8
497857.000000,5421781.000000,308.720001,0.8,0.8,0.8
496957.125000,5421040.000000,304.739990,0.8,0.8,0.8
497365.781250,5421717.000000,301.059998,0.8,0.8,0.8
497818.375000,5421019.500000,375.609985,0.8,0.8,0.8
497419.937500,5421251.000000,300.880005,0.8,0.8,0.8
496669.000000,5421781.000000,294.309998,0.8,0.8,0.8
497864.281250,5421515.000000,305.570007,0.8,0.8,0.8
496672.375000,5421604.000000,283.459991,0.8,0.8,0.8
497809.250000,5421796.000000,314.040009,0.8,0.8,0.8
496428.593750,5421248.000000,291.809998,0.8,0.8,0.8
496679.687500,5421707.000000,288.959991,0.8,0.8,0.8
497873.156250,5421264.000000,314.309998,0.8,0.8,0.8
497528.937500,5421443.500000,304.170013,0.8,0.8,0.8
497690.843750,5420905.500000,326.220001,0.8,0.8,0.8
497738.468750,5420895.000000,327.200012,0.8,0.8,0.8
497139.625000,5421238.500000,287.790009,0.8,0.8,0.8
496422.843750,5421493.000000,290.910004,0.8,0.8,0.8
497319.093750,5421653.500000,303.420013,0.8,0.8,0.8
496453.625000,5421360.000000,275.660004,0.8,0.8,0.8
497741.875000,5421149.500000,320.420013,0.8,0.8,0.8
496614.718750,5421048.500000,875.619995,0.8,0.8,0.8
497327.125000,5421282.000000,305.929993,0.8,0.8,0.8
497362.125000,5421066.500000,312.880005,0.8,0.8,0.8
496498.156250,5421563.500000,292.510010,0.8,0.8,0.8
496653.812500,5421384.500000,276.079987,0.8,0.8,0.8
497275.750000,5421022.000000,304.230011,0.8,0.8,0.8
496625.656250,5421401.500000,270.679993,0.8,0.8,0.8
497108.187500,5421489.000000,297.679993,0.8,0.8,0.8
497891.625000,5421439.500000,300.399994,0.8,0.8,0.8
496891.281250,5421744.500000,299.260010,0.8,0.8,0.8
496367.125000,5421706.000000,301.329987,0.8,0.8,0.8
496785.625000,5420940.500000,311.459991,0.8,0.8,0.8
497673.312500,5421562.500000,311.980011,0.8,0.8,0.8
497824.750000,5421449.000000,301.230011,0.8,0.8,0.8
496440.750000,5421145.000000,292.429993,0.8,0.8,0.8
497498.093750,5421694.000000,306.829987,0.8,0.8,0.8
497255.343750,5421452.000000,301.890015,0.8,0.8,0.8
496990.125000,5421413.500000,291.540009,0.8,0.8,0.8
496607.906250,5421269.000000,296.320007,0.8,0.8,0.8
497314.250000,5420864.500000,312.369995,0.8,0.8,0.8
496351.375000,5420951.000000,302.440002,0.8,0.8,0.8
496771.531250,5420856.500000,315.679993,0.8,0.8,0.8
497631.281250,5421543.000000,310.730011,0.8,0.8,0.8
496470.156250,5421643.000000,294.549988,0.8,0.8,0.8
497819.750000,5421708.500000,310.649994,0.8,0.8,0.8
497298.343750,5421110.000000,303.170013,0.8,0.8,0.8
496565.656250,5420752.000000,313.299988,0.8,0.8,0.8
497891.125000,5421157.500000,323.220001,0.8,0.8,0.8
497658.625000,5421025.500000,324.070007,0.8,0.8,0.8
496475.718750,5420996.500000,312.739990,0.8,0.8,0.8
496827.812500,5421361.500000,286.399994,0.8,0.8,0.8
497537.125000,5421650.500000,309.730011,0.8,0.8,0.8
497271.500000,5421093.500000,301.820007,0.8,0.8,0.8
497706.718750,5421552.000000,311.329987,0.8,0.8,0.8
497062.468750,5420786.000000,312.130005,0.8,0.8,0.8
497847.750000,5421266.500000,313.209991,0.8,0.8,0.8
496951.781250,5421760.500000,288.130005,0.8,0.8,0.8
496399.750000,5421089.500000,899.409973,0.8,0.8,0.8
497029.625000,5421188.000000,295.299988,0.8,0.8,0.8
496577.187500,5421366.500000,274.540009,0.8,0.8,0.8
496907.000000,5421482.500000,303.790009,0.8,0.8,0.8
496523.593750,5421671.500000,289.350006,0.8,0.8,0.8
496431.500000,5420943.000000,305.359985,0.8,0.8,0.8
497269.218750,5420944.500000,306.250000,0.8,0.8,0.8
496805.687500,5421401.000000,285.329987,0.8,0.8,0.8
496844.968750,5421197.000000,299.399994,0.8,0.8,0.8
497766.531250,5421686.000000,310.850006,0.8,0.8,0.8
497810.250000,5421032.500000,360.380005,0.8,0.8,0.8
496581.718750,5421398.000000,271.279999,0.8,0.8,0.8
497559.656250,5421281.500000,297.630005,0.8,0.8,0.8
496416.843750,5421447.500000,287.670013,0.8,0.8,0.8
496961.656250,5420856.500000,307.660004,0.8,0.8,0.8
497388.312500,5421507.000000,307.750000,0.8,0.8,0.8
496856.218750,5421214.000000,293.149994,0.8,0.8,0.8
496544.468750,5421778.500000,294.100006,0.8,0.8,0.8
497027.750000,5421753.000000,283.079987,0.8,0.8,0.8
496429.156250,5421700.500000,297.480011,0.8,0.8,0.8
497898.031250,5421476.500000,301.920013,0.8,0.8,0.8
496575.437500,5421058.500000,304.579987,0.8,0.8,0.8
496895.812500,5421277.000000,291.950012,0.8,0.8,0.8
496501.656250,5421273.500000,273.750000,0.8,0.8,0.8
497940.218750,5421429.000000,304.989990,0.8,0.8,0.8
496917.625000,5420911.000000,304.489990,0.8,0.8,0.8
497855.062500,5420880.500000,329.980011,0.8,0.8,0.8
497265.750000,5420853.000000,310.399994,0.8,0.8,0.8
496467.125000,5421048.500000,910.369995,0.8,0.8,0.8
497519.968750,5421636.000000,309.739990,0.8,0.8,0.8
497218.468750,5420973.000000,300.760010,0.8,0.8,0.8
496427.875000,5420938.000000,302.239990,0.8,0.8,0.8
497127.968750,5421617.000000,883.750000,0.8,0.8,0.8
496924.468750,5421257.000000,287.010010,0.8,0.8,0.8
496379.406250,5421364.500000,281.200012,0.8,0.8,0.8
496529.406250,5420890.000000,303.839996,0.8,0.8,0.8
497000.187500,5421018.500000,311.109985,0.8,0.8,0.8
496377.062500,5420966.000000,300.869995,0.8,0.8,0.8
496392.593750,5421251.000000,279.089996,0.8,0.8,0.8
496813.562500,5420982.500000,312.640015,0.8,0.8,0.8
497616.218750,5421711.000000,307.600006,0.8,0.8,0.8
496787.000000,5421076.000000,304.540009,0.8,0.8,0.8
497213.593750,5421221.500000,292.170013,0.8,0.8,0.8
496438.812500,5421297.000000,273.299988,0.8,0.8,0.8
496723.343750,5421489.000000,285.589996,0.8,0.8,0.8
496834.937500,5421364.000000,295.040009,0.8,0.8,0.8
497361.562500,5421003.000000,317.130005,0.8,0.8,0.8
497216.656250,5421020.000000,308.850006,0.8,0.8,0.8
497521.812500,5421722.500000,312.600006,0.8,0.8,0.8
496385.625000,5421062.000000,299.140015,0.8,0.8,0.8
496651.906250,5421035.000000,894.909973,0.8,0.8,0.8
496738.968750,5421153.500000,295.989990,0.8,0.8,0.8
497117.812500,5420910.500000,307.720001,0.8,0.8,0.8
497214.781250,5420979.500000,299.779999,0.8,0.8,0.8
497101.500000,5421132.500000,302.359985,0.8,0.8,0.8
497612.437500,5421393.500000,297.480011,0.8,0.8,0.8
496415.875000,5421799.000000,302.970001,0.8,0.8,0.8
497788.656250,5420975.000000,330.940002,0.8,0.8,0.8
496883.937500,5421358.000000,282.510010,0.8,0.8,0.8
497723.093750,5420978.500000,327.140015,0.8,0.8,0.8
497481.531250,5421677.500000,307.079987,0.8,0.8,0.8
497233.875000,5420878.500000,314.679993,0.8,0.8,0.8
496839.687500,5421021.000000,314.799988,0.8,0.8,0.8
496737.218750,5421359.500000,286.790009,0.8,0.8,0.8
496468.312500,5421694.000000,294.440002,0.8,0.8,0.8
496669.281250,5421193.500000,292.320007,0.8,0.8,0.8
496768.687500,5420875.000000,312.019989,0.8,0.8,0.8
496804.156250,5421728.500000,305.839996,0.8,0.8,0.8
497885.968750,5421000.000000,330.890015,0.8,0.8,0.8
496805.875000,5421535.500000,283.940002,0.8,0.8,0.8
497458.906250,5421110.000000,347.399994,0.8,0.8,0.8
496684.437500,5421099.500000,299.859985,0.8,0.8,0.8
497438.406250,5420772.500000,325.630005,0.8,0.8,0.8
496594.562500,5420769.500000,308.899994,0.8,0.8,0.8
497762.906250,5421452.500000,302.339996,0.8,0.8,0.8
497938.218750,5421283.000000,314.329987,0.8,0.8,0.8
496785.968750,5421578.500000,284.109985,0.8,0.8,0.8
497049.125000,5421795.500000,281.809998,0.8,0.8,0.8
497637.156250,5421039.000000,350.970001,0.8,0.8,0.8
496928.593750,5421089.500000,301.500000,0.8,0.8,0.8
496458.406250,5421767.000000,298.510010,0.8,0.8,0.8
496568.281250,5421128.500000,297.470001,0.8,0.8,0.8
497001.531250,5421734.500000,282.299988,0.8,0.8,0.8
497582.187500,5421789.000000,302.040009,0.8,0.8,0.8
496786.625000,5421573.000000,877.090027,0.8,0.8,0.8
497210.843750,5421388.500000,296.320007,0.8,0.8,0.8
496784.500000,5421689.500000,333.720001,0.8,0.8,0.8
497084.093750,5421782.500000,285.559998,0.8,0.8,0.8
496529.375000,5420757.500000,309.350006,0.8,0.8,0.8
497730.812500,5420908.500000,327.160004,0.8,0.8,0.8
496893.625000,5421565.500000,293.010010,0.8,0.8,0.8
497039.500000,5421526.500000,296.940002,0.8,0.8,0.8
496830.031250,5421431.000000,301.220001,0.8,0.8,0.8
497233.562500,5421714.000000,303.040009,0.8,0.8,0.8
496908.343750,5420990.000000,304.170013,0.8,0.8,0.8
496775.281250,5421546.000000,280.070007,0.8,0.8,0.8
496748.718750,5421051.000000,333.609985,0.8,0.8,0.8
497082.625000,5421429.000000,293.559998,0.8,0.8,0.8
497587.281250,5420919.500000,321.920013,0.8,0.8,0.8
497486.437500,5421113.000000,311.070007,0.8,0.8,0.8
496815.281250,5421280.000000,284.179993,0.8,0.8,0.8
497205.843750,5420783.000000,318.489990,0.8,0.8,0.8
497324.343750,5421525.000000,306.570007,0.8,0.8,0.8
496894.562500,5421386.000000,310.250000,0.8,0.8,0.8
496572.968750,5421234.000000,288.260010,0.8,0.8,0.8
497907.437500,5421632.500000,311.549988,0.8,0.8,0.8
497603.812500,5421637.500000,310.609985,0.8,0.8,0.8
496417.125000,5421102.000000,912.419983,0.8,0.8,0.8
496606.656250,5421768.500000,294.369995,0.8,0.8,0.8
497280.843750,5420877.500000,309.489990,0.8,0.8,0.8
496817.968750,5421560.000000,875.919983,0.8,0.8,0.8
497555.781250,5421297.000000,296.220001,0.8,0.8,0.8
496697.843750,5421623.000000,280.989990,0.8,0.8,0.8
497688.812500,5421800.500000,304.230011,0.8,0.8,0.8
497606.906250,5421785.000000,303.549988,0.8,0.8,0.8
497448.937500,5421641.000000,307.899994,0.8,0.8,0.8
497100.937500,5421566.000000,300.559998,0.8,0.8,0.8
497821.187500,5421664.500000,311.670013,0.8,0.8,0.8
497757.875000,5420858.000000,333.029999,0.8,0.8,0.8
496457.687500,5421459.500000,287.540009,0.8,0.8,0.8
497827.531250,5421701.000000,310.989990,0.8,0.8,0.8
497303.531250,5421478.000000,307.640015,0.8,0.8,0.8
497469.125000,5421766.000000,300.670013,0.8,0.8,0.8
497320.968750,5421562.000000,306.739990,0.8,0.8,0.8
497764.093750,5421394.000000,297.959991,0.8,0.8,0.8
496818.218750,5421145.000000,297.279999,0.8,0.8,0.8
497812.281250,5421697.500000,310.959991,0.8,0.8,0.8
497340.125000,5421397.000000,296.230011,0.8,0.8,0.8
496906.000000,5420931.000000,304.260010,0.8,0.8,0.8
497202.500000,5421172.500000,293.809998,0.8,0.8,0.8
496853.093750,5420885.000000,309.950012,0.8,0.8,0.8
496900.656250,5421419.500000,304.720001,0.8,0.8,0.8
497845.343750,5421464.000000,301.739990,0.8,0.8,0.8
497948.875000,5420959.000000,332.700012,0.8,0.8,0.8
496856.062500,5421765.000000,304.440002,0.8,0.8,0.8
497460.312500,5421053.500000,316.070007,0.8,0.8,0.8
497837.375000,5421231.000000,316.440002,0.8,0.8,0.8
497276.625000,5420858.500000,310.649994,0.8,0.8,0.8
497437.812500,5420928.000000,313.799988,0.8,0.8,0.8
496421.187500,5421207.000000,285.809998,0.8,0.8,0.8
497772.625000,5421178.500000,319.170013,0.8,0.8,0.8
497715.250000,5421186.000000,316.989990,0.8,0.8,0.8
496898.625000,5421389.000000,304.170013,0.8,0.8,0.8
496867.468750,5421778.500000,300.390015,0.8,0.8,0.8
496496.531250,5421528.500000,291.170013,0.8,0.8,0.8
496872.218750,5421389.000000,309.290009,0.8,0.8,0.8
496791.906250,5421494.000000,298.160004,0.8,0.8,0.8
496465.843750,5420767.500000,306.929993,0.8,0.8,0.8
496829.375000,5421437.500000,295.910004,0.8,0.8,0.8
496812.843750,5421097.500000,300.809998,0.8,0.8,0.8
496491.562500,5421451.000000,292.149994,0.8,0.8,0.8
496970.750000,5420779.000000,320.250000,0.8,0.8,0.8
496469.156250,5421070.500000,905.640015,0.8,0.8,0.8
497752.093750,5421199.500000,316.640015,0.8,0.8,0.8
496368.937500,5421062.500000,893.989990,0.8,0.8,0.8
496841.468750,5420770.500000,322.140015,0.8,0.8,0.8
497719.031250,5421380.000000,297.880005,0.8,0.8,0.8
497334.875000,5421016.000000,309.269989,0.8,0.8,0.8
497265.500000,5420959.500000,306.309998,0.8,0.8,0.8
497832.468750,5420752.500000,333.290009,0.8,0.8,0.8
496843.156250,5420950.000000,323.470001,0.8,0.8,0.8
497116.343750,5420974.000000,300.600006,0.8,0.8,0.8
497738.718750,5420884.500000,326.980011,0.8,0.8,0.8
496950.343750,5421457.500000,292.140015,0.8,0.8,0.8
497549.281250,5420889.000000,319.750000,0.8,0.8,0.8
496772.250000,5421447.000000,295.190002,0.8,0.8,0.8
497703.156250,5421529.000000,310.119995,0.8,0.8,0.8
497228.500000,5421060.000000,300.929993,0.8,0.8,0.8
496368.500000,5421250.500000,280.940002,0.8,0.8,0.8
497006.718750,5420877.500000,306.230011,0.8,0.8,0.8
497258.937500,5421662.000000,302.619995,0.8,0.8,0.8
496838.000000,5421790.500000,297.779999,0.8,0.8,0.8
496776.593750,5421371.000000,297.989990,0.8,0.8,0.8
496660.687500,5421177.500000,294.779999,0.8,0.8,0.8
496918.218750,5421559.000000,293.750000,0.8,0.8,0.8
497074.437500,5421021.500000,300.869995,0.8,0.8,0.8
497224.312500,5421627.000000,874.900024,0.8,0.8,0.8
497183.062500,5421141.000000,294.429993,0.8,0.8,0.8
497805.093750,5420902.500000,329.470001,0.8,0.8,0.8
496446.500000,5421115.000000,293.850006,0.8,0.8,0.8
497461.593750,5421016.500000,316.709991,0.8,0.8,0.8
496647.281250,5421530.500000,278.190002,0.8,0.8,0.8
497142.718750,5421586.500000,302.059998,0.8,0.8,0.8
496494.750000,5421650.000000,291.910004,0.8,0.8,0.8
497677.468750,5421002.500000,325.179993,0.8,0.8,0.8
496390.468750,5421712.500000,300.209991,0.8,0.8,0.8
496607.500000,5421681.000000,286.570007,0.8,0.8,0.8
497251.593750,5421622.000000,307.850006,0.8,0.8,0.8
496534.812500,5421489.000000,291.399994,0.8,0.8,0.8
496845.187500,5421433.500000,296.690002,0.8,0.8,0.8
497520.468750,5421785.000000,311.079987,0.8,0.8,0.8
497916.281250,5421610.500000,866.119995,0.8,0.8,0.8
496434.031250,5421101.000000,298.760010,0.8,0.8,0.8
496737.937500,5421468.000000,298.720001,0.8,0.8,0.8
496981.687500,5421213.500000,291.880005,0.8,0.8,0.8
497809.375000,5420925.000000,329.820007,0.8,0.8,0.8
496499.562500,5421094.500000,297.829987,0.8,0.8,0.8
496872.000000,5421401.500000,304.230011,0.8,0.8,0.8
497919.375000,5421419.500000,305.239990,0.8,0.8,0.8
497253.375000,5421106.000000,299.929993,0.8,0.8,0.8
497514.812500,5421740.500000,303.660004,0.8,0.8,0.8
497655.062500,5420880.000000,333.959991,0.8,0.8,0.8
497073.062500,5420856.000000,315.559998,0.8,0.8,0.8
497397.656250,5420857.500000,313.410004,0.8,0.8,0.8
497447.593750,5420869.000000,319.119995,0.8,0.8,0.8
496389.656250,5421264.000000,266.390015,0.8,0.8,0.8
497891.250000,5420921.000000,331.459991,0.8,0.8,0.8
497089.875000,5420762.500000,314.339996,0.8,0.8,0.8
497101.937500,5421500.500000,297.630005,0.8,0.8,0.8
497281.031250,5421481.500000,304.000000,0.8,0.8,0.8
497855.156250,5421561.500000,309.299988,0.8,0.8,0.8
497784.625000,5421718.000000,310.190002,0.8,0.8,0.8
497771.125000,5421453.000000,302.290009,0.8,0.8,0.8
496794.156250,5421511.000000,297.220001,0.8,0.8,0.8
496991.656250,5421479.000000,293.130005,0.8,0.8,0.8
496673.187500,5421398.000000,293.940002,0.8,0.8,0.8
497899.031250,5421004.000000,331.089996,0.8,0.8,0.8
496659.656250,5420772.500000,311.600006,0.8,0.8,0.8
496699.750000,5420990.000000,310.130005,0.8,0.8,0.8
497781.312500,5420969.000000,328.459991,0.8,0.8,0.8
497862.250000,5421800.000000,307.910004,0.8,0.8,0.8
497843.875000,5421023.500000,350.359985,0.8,0.8,0.8
496534.125000,5421693.000000,289.290009,0.8,0.8,0.8
497587.718750,5421534.500000,310.059998,0.8,0.8,0.8
497238.156250,5420760.500000,318.269989,0.8,0.8,0.8
497719.906250,5421461.000000,304.519989,0.8,0.8,0.8
497526.625000,5421040.500000,319.570007,0.8,0.8,0.8
496651.656250,5421464.500000,273.779999,0.8,0.8,0.8
497150.218750,5420995.000000,298.809998,0.8,0.8,0.8
497902.093750,5421091.000000,328.109985,0.8,0.8,0.8
496634.156250,5421134.000000,304.000000,0.8,0.8,0.8
497697.687500,5420984.500000,326.470001,0.8,0.8,0.8
496831.500000,5421644.000000,289.929993,0.8,0.8,0.8
497141.187500,5421510.000000,305.910004,0.8,0.8,0.8
496826.968750,5421628.500000,289.410004,0.8,0.8,0.8
497879.750000,5421046.000000,329.510010,0.8,0.8,0.8
496413.375000,5420947.500000,308.250000,0.8,0.8,0.8
497447.000000,5421057.500000,315.320007,0.8,0.8,0.8
496597.031250,5421264.000000,291.779999,0.8,0.8,0.8
496751.968750,5421197.500000,295.239990,0.8,0.8,0.8
497218.093750,5421036.500000,308.089996,0.8,0.8,0.8
497164.375000,5420982.500000,298.940002,0.8,0.8,0.8
496518.000000,5421040.000000,913.960022,0.8,0.8,0.8
496393.437500,5421233.500000,275.290009,0.8,0.8,0.8
497748.656250,5421749.000000,308.149994,0.8,0.8,0.8
496461.718750,5421470.500000,300.970001,0.8,0.8,0.8
496729.218750,5420900.500000,305.690002,0.8,0.8,0.8
496657.937500,5421209.000000,290.769989,0.8,0.8,0.8
496536.750000,5420953.500000,303.440002,0.8,0.8,0.8
497942.031250,5420759.000000,334.980011,0.8,0.8,0.8
497749.406250,5421742.500000,308.470001,0.8,0.8,0.8
497673.062500,5421492.500000,308.220001,0.8,0.8,0.8
496702.718750,5421370.500000,274.350006,0.8,0.8,0.8
496823.937500,5421023.000000,314.769989,0.8,0.8,0.8
497101.625000,5421072.500000,304.000000,0.8,0.8,0.8
497022.625000,5421733.000000,284.429993,0.8,0.8,0.8
496461.500000,5421224.000000,283.809998,0.8,0.8,0.8
497630.218750,5421496.000000,307.640015,0.8,0.8,0.8
496805.625000,5421188.500000,303.239990,0.8,0.8,0.8
496926.343750,5421162.000000,296.359985,0.8,0.8,0.8
496382.093750,5421265.000000,273.380005,0.8,0.8,0.8
497910.875000,5421216.500000,318.850006,0.8,0.8,0.8
496851.375000,5421730.000000,297.459991,0.8,0.8,0.8
496363.906250,5421407.000000,285.559998,0.8,0.8,0.8
496432.093750,5421188.500000,287.720001,0.8,0.8,0.8
497833.625000,5421235.000000,315.950012,0.8,0.8,0.8
497196.812500,5421163.500000,294.070007,0.8,0.8,0.8
497915.125000,5421485.500000,302.540009,0.8,0.8,0.8
496887.718750,5421252.000000,290.250000,0.8,0.8,0.8
496932.187500,5421231.500000,291.679993,0.8,0.8,0.8
497412.906250,5421406.500000,299.690002,0.8,0.8,0.8
497570.125000,5420931.000000,321.309998,0.8,0.8,0.8
496909.562500,5421367.500000,295.600006,0.8,0.8,0.8
496781.468750,5421108.500000,299.690002,0.8,0.8,0.8
497047.625000,5420982.000000,301.750000,0.8,0.8,0.8
497716.562500,5421040.000000,325.579987,0.8,0.8,0.8
496730.375000,5421034.000000,308.130005,0.8,0.8,0.8
497390.375000,5421729.000000,302.309998,0.8,0.8,0.8
496850.000000,5421690.000000,297.179993,0.8,0.8,0.8
496367.500000,5420942.500000,307.160004,0.8,0.8,0.8
496417.281250,5421282.000000,275.700012,0.8,0.8,0.8
496883.812500,5421678.500000,297.380005,0.8,0.8,0.8
496905.281250,5421453.000000,315.730011,0.8,0.8,0.8
496404.375000,5421436.000000,287.220001,0.8,0.8,0.8
497015.187500,5421038.000000,308.549988,0.8,0.8,0.8
496435.593750,5421252.500000,285.950012,0.8,0.8,0.8
497250.062500,5421583.000000,304.769989,0.8,0.8,0.8
496484.250000,5421548.000000,292.500000,0.8,0.8,0.8
496687.125000,5421542.000000,274.829987,0.8,0.8,0.8
497136.687500,5421586.000000,301.670013,0.8,0.8,0.8
496601.031250,5420945.500000,306.399994,0.8,0.8,0.8
497379.218750,5420991.500000,312.869995,0.8,0.8,0.8
497696.406250,5421691.000000,310.200012,0.8,0.8,0.8
497230.218750,5420882.000000,312.200012,0.8,0.8,0.8
497700.187500,5421806.500000,306.500000,0.8,0.8,0.8
497477.125000,5421792.500000,298.820007,0.8,0.8,0.8
497711.687500,5421399.500000,298.529999,0.8,0.8,0.8
496497.812500,5421782.500000,296.470001,0.8,0.8,0.8
496449.406250,5421296.500000,274.470001,0.8,0.8,0.8
497047.875000,5421751.500000,284.359985,0.8,0.8,0.8
496631.937500,5421490.500000,273.570007,0.8,0.8,0.8
497160.375000,5421198.500000,290.890015,0.8,0.8,0.8
496845.281250,5420974.000000,312.390015,0.8,0.8,0.8
496608.500000,5421496.000000,277.660004,0.8,0.8,0.8
497705.468750,5421717.000000,318.489990,0.8,0.8,0.8
497750.875000,5421144.000000,321.029999,0.8,0.8,0.8
497146.562500,5421717.000000,302.529999,0.8,0.8,0.8
496965.062500,5421703.500000,294.700012,0.8,0.8,0.8
496371.125000,5420976.500000,300.480011,0.8,0.8,0.8
497001.343750,5421252.500000,290.019989,0.8,0.8,0.8
496769.437500,5421367.000000,283.279999,0.8,0.8,0.8
497480.375000,5420936.500000,317.390015,0.8,0.8,0.8
497539.812500,5421513.500000,308.609985,0.8,0.8,0.8
497787.125000,5421687.500000,311.070007,0.8,0.8,0.8
496950.218750,5420857.500000,307.320007,0.8,0.8,0.8
497476.906250,5421188.000000,312.010010,0.8,0.8,0.8
497415.500000,5421731.500000,302.779999,0.8,0.8,0.8
497189.906250,5421719.000000,307.600006,0.8,0.8,0.8
497118.312500,5421242.000000,287.260010,0.8,0.8,0.8
497191.812500,5421604.500000,303.649994,0.8,0.8,0.8
497817.093750,5421787.500000,310.260010,0.8,0.8,0.8
497073.656250,5420941.500000,302.000000,0.8,0.8,0.8
496871.906250,5421565.500000,287.160004,0.8,0.8,0.8
497070.312500,5420966.500000,301.140015,0.8,0.8,0.8
