x,y,z,r,g,b
500327,5.41937e+006,257.84,0.8,0.8,0.8
499520,5.41841e+006,265.31,0.8,0.8,0.8
499714,5.41887e+006,250.82,0.8,0.8,0.8
499633,5.41897e+006,257.85,0.8,0.8,0.8
499899,5.41845e+006,278.93,0.8,0.8,0.8
500105,5.41866e+006,274,0.8,0.8,0.8
500276,5.41885e+006,255.33,0.8,0.8,0.8
500292,5.41909e+006,244.17,0.8,0.8,0.8
500384,5.41943e+006,268.09,0.8,0.8,0.8
499928,5.41855e+006,272.56,0.8,0.8,0.8
500091,5.41913e+006,247.87,0.8,0.8,0.8
499512,5.41923e+006,285.4,0.8,0.8,0.8
500013,5.41915e+006,249.87,0.8,0.8,0.8
499871,5.41846e+006,277.82,0.8,0.8,0.8
500025,5.4184e+006,283.38,0.8,0.8,0.8
499674,5.41849e+006,257.16,0.8,0.8,0.8
500014,5.41933e+006,273.39,0.8,0.8,0.8
499551,5.41837e+006,270.19,0.8,0.8,0.8
499547,5.41888e+006,256.31,0.8,0.8,0.8
499782,5.41862e+006,248.58,0.8,0.8,0.8
500527,5.41919e+006,243.99,0.8,0.8,0.8
499489,5.41866e+006,260.85,0.8,0.8,0.8
500105,5.41923e+006,251.78,0.8,0.8,0.8
499758,5.41852e+006,256.2,0.8,0.8,0.8
499717,5.41896e+006,254.65,0.8,0.8,0.8
499563,5.41837e+006,261.52,0.8,0.8,0.8
500279,5.41889e+006,253.86,0.8,0.8,0.8
500086,5.41859e+006,277.33,0.8,0.8,0.8
499916,5.41864e+006,261.65,0.8,0.8,0.8
500097,5.41834e+006,289.55,0.8,0.8,0.8
500175,5.41915e+006,247.67,0.8,0.8,0.8
499804,5.41931e+006,265.63,0.8,0.8,0.8
500202,5.41915e+006,247.16,0.8,0.8,0.8
500361,5.41891e+006,252.05,0.8,0.8,0.8
499559,5.41838e+006,270.98,0.8,0.8,0.8
500296,5.41924e+006,247.3,0.8,0.8,0.8
499840,5.41938e+006,273.19,0.8,0.8,0.8
499867,5.41896e+006,249.69,0.8,0.8,0.8
500410,5.4189e+006,253.21,0.8,0.8,0.8
500461,5.41911e+006,244.12,0.8,0.8,0.8
499675,5.4193e+006,274.06,0.8,0.8,0.8
499610,5.41923e+006,279.51,0.8,0.8,0.8
499637,5.41935e+006,286.76,0.8,0.8,0.8
500193,5.41883e+006,266.79,0.8,0.8,0.8
499519,5.41919e+006,277.66,0.8,0.8,0.8
499872,5.41841e+006,280.98,0.8,0.8,0.8
500050,5.41914e+006,249.42,0.8,0.8,0.8
500279,5.41886e+006,255.03,0.8,0.8,0.8
500040,5.41898e+006,244.39,0.8,0.8,0.8
499959,5.41916e+006,251.82,0.8,0.8,0.8
499961,5.41936e+006,267.22,0.8,0.8,0.8
499693,5.41928e+006,271.39,0.8,0.8,0.8
499456,5.4184e+006,271.61,0.8,0.8,0.8
500171,5.41862e+006,277.29,0.8,0.8,0.8
500463,5.41925e+006,245.62,0.8,0.8,0.8
500020,5.41931e+006,271.42,0.8,0.8,0.8
499943,5.41892e+006,244.43,0.8,0.8,0.8
500054,5.4193e+006,257.82,0.8,0.8,0.8
500455,5.41883e+006,257.35,0.8,0.8,0.8
500482,5.41903e+006,243.92,0.8,0.8,0.8
500114,5.41936e+006,262.65,0.8,0.8,0.8
500232,5.41919e+006,247.05,0.8,0.8,0.8
500126,5.41844e+006,284.86,0.8,0.8,0.8
499649,5.41904e+006,260.19,0.8,0.8,0.8
499892,5.41892e+006,246.7,0.8,0.8,0.8
500234,5.41911e+006,245.16,0.8,0.8,0.8
500347,5.41902e+006,244.07,0.8,0.8,0.8
499497,5.41902e+006,264.27,0.8,0.8,0.8
500482,5.41921e+006,254.98,0.8,0.8,0.8
500031,5.41889e+006,289.32,0.8,0.8,0.8
499807,5.41871e+006,244.03,0.8,0.8,0.8
499880,5.41846e+006,277.43,0.8,0.8,0.8
500326,5.41892e+006,257.7,0.8,0.8,0.8
499517,5.41843e+006,251.39,0.8,0.8,0.8
500093,5.41881e+006,268.95,0.8,0.8,0.8
500222,5.41914e+006,245.86,0.8,0.8,0.8
499982,5.41839e+006,282.92,0.8,0.8,0.8
500044,5.41887e+006,289.41,0.8,0.8,0.8
499740,5.41938e+006,274.02,0.8,0.8,0.8
499890,5.41882e+006,244.6,0.8,0.8,0.8
500319,5.41878e+006,264.2,0.8,0.8,0.8
499920,5.41927e+006,260.88,0.8,0.8,0.8
499935,5.4186e+006,266.31,0.8,0.8,0.8
499631,5.41892e+006,256.02,0.8,0.8,0.8
500117,5.41843e+006,285.33,0.8,0.8,0.8
500436,5.41913e+006,244.16,0.8,0.8,0.8
500079,5.41917e+006,269.94,0.8,0.8,0.8
499821,5.41892e+006,249.61,0.8,0.8,0.8
499630,5.4189e+006,254.81,0.8,0.8,0.8
499484,5.4188e+006,254.18,0.8,0.8,0.8
500209,5.41893e+006,274.64,0.8,0.8,0.8
499841,5.41846e+006,287.55,0.8,0.8,0.8
499496,5.4184e+006,267.72,0.8,0.8,0.8
500339,5.41912e+006,274.37,0.8,0.8,0.8
499683,5.41942e+006,293.87,0.8,0.8,0.8
500033,5.41844e+006,287.03,0.8,0.8,0.8
499531,5.41929e+006,290.23,0.8,0.8,0.8
500087,5.41935e+006,275.55,0.8,0.8,0.8
499882,5.4189e+006,246,0.8,0.8,0.8
500526,5.41925e+006,275.03,0.8,0.8,0.8
499815,5.41872e+006,246.55,0.8,0.8,0.8
500249,5.41938e+006,275.38,0.8,0.8,0.8
500141,5.41921e+006,268.77,0.8,0.8,0.8
499863,5.41915e+006,254.43,0.8,0.8,0.8
499813,5.4191e+006,256.38,0.8,0.8,0.8
500406,5.4188e+006,259.95,0.8,0.8,0.8
499894,5.41911e+006,252.48,0.8,0.8,0.8
499744,5.41923e+006,263.18,0.8,0.8,0.8
499465,5.4187e+006,243.17,0.8,0.8,0.8
500214,5.41886e+006,254.96,0.8,0.8,0.8
499500,5.4184e+006,263.41,0.8,0.8,0.8
499951,5.41887e+006,244.68,0.8,0.8,0.8
499541,5.41861e+006,256.07,0.8,0.8,0.8
499449,5.41872e+006,260.55,0.8,0.8,0.8
500229,5.41918e+006,246.96,0.8,0.8,0.8
499785,5.41843e+006,268.26,0.8,0.8,0.8
499902,5.41859e+006,262.97,0.8,0.8,0.8
499704,5.41878e+006,247.36,0.8,0.8,0.8
499730,5.41881e+006,252.28,0.8,0.8,0.8
499646,5.4194e+006,294.69,0.8,0.8,0.8
499761,5.41902e+006,254.96,0.8,0.8,0.8
499792,5.41857e+006,250.73,0.8,0.8,0.8
500065,5.41885e+006,289.99,0.8,0.8,0.8
499689,5.4189e+006,253.01,0.8,0.8,0.8
500287,5.4189e+006,249.63,0.8,0.8,0.8
500343,5.41936e+006,254.48,0.8,0.8,0.8
500210,5.41902e+006,242.5,0.8,0.8,0.8
499643,5.4185e+006,259.59,0.8,0.8,0.8
499745,5.4194e+006,275.56,0.8,0.8,0.8
499541,5.41861e+006,259.46,0.8,0.8,0.8
500491,5.41915e+006,244.04,0.8,0.8,0.8
499571,5.4194e+006,301.19,0.8,0.8,0.8
499573,5.41923e+006,277.26,0.8,0.8,0.8
499523,5.41924e+006,284.35,0.8,0.8,0.8
499518,5.41932e+006,292.87,0.8,0.8,0.8
499943,5.4192e+006,253.84,0.8,0.8,0.8
499723,5.41914e+006,261.45,0.8,0.8,0.8
500165,5.41914e+006,247.57,0.8,0.8,0.8
500428,5.41918e+006,243.21,0.8,0.8,0.8
500366,5.41911e+006,260.17,0.8,0.8,0.8
500452,5.4191e+006,243.5,0.8,0.8,0.8
499619,5.41881e+006,250.21,0.8,0.8,0.8
499777,5.41859e+006,248.46,0.8,0.8,0.8
499997,5.41847e+006,279.52,0.8,0.8,0.8
500053,5.41836e+006,285.67,0.8,0.8,0.8
499497,5.41906e+006,266.55,0.8,0.8,0.8
500029,5.41935e+006,270.39,0.8,0.8,0.8
499837,5.41916e+006,255.56,0.8,0.8,0.8
500450,5.41913e+006,274.3,0.8,0.8,0.8
499855,5.41872e+006,265.95,0.8,0.8,0.8
500485,5.41904e+006,243.77,0.8,0.8,0.8
499761,5.41883e+006,247.03,0.8,0.8,0.8
500108,5.41884e+006,242.75,0.8,0.8,0.8
499754,5.41873e+006,258.77,0.8,0.8,0.8
500144,5.41839e+006,290.19,0.8,0.8,0.8
499549,5.41854e+006,247.32,0.8,0.8,0.8
499993,5.41888e+006,244.7,0.8,0.8,0.8
500415,5.41886e+006,256.49,0.8,0.8,0.8
500168,5.41863e+006,276.7,0.8,0.8,0.8
499563,5.41941e+006,303.99,0.8,0.8,0.8
500023,5.41902e+006,246.33,0.8,0.8,0.8
500098,5.41936e+006,261.8,0.8,0.8,0.8
499924,5.41852e+006,273.7,0.8,0.8,0.8
499581,5.41869e+006,245.6,0.8,0.8,0.8
499794,5.41939e+006,273.66,0.8,0.8,0.8
500125,5.41928e+006,261.2,0.8,0.8,0.8
499651,5.41857e+006,244.16,0.8,0.8,0.8
499907,5.41857e+006,270.24,0.8,0.8,0.8
500100,5.41882e+006,256.01,0.8,0.8,0.8
499531,5.41859e+006,245.71,0.8,0.8,0.8
500278,5.41918e+006,245.63,0.8,0.8,0.8
500288,5.41941e+006,277.57,0.8,0.8,0.8
499481,5.4187e+006,249.52,0.8,0.8,0.8
499878,5.41941e+006,274.04,0.8,0.8,0.8
500514,5.41879e+006,259.76,0.8,0.8,0.8
500104,5.4185e+006,280.58,0.8,0.8,0.8
499852,5.41836e+006,282.86,0.8,0.8,0.8
499467,5.41869e+006,271.1,0.8,0.8,0.8
500014,5.4186e+006,274.15,0.8,0.8,0.8
500215,5.41939e+006,270.81,0.8,0.8,0.8
500032,5.41869e+006,269.71,0.8,0.8,0.8
499626,5.41917e+006,268.07,0.8,0.8,0.8
500171,5.41887e+006,257.26,0.8,0.8,0.8
499741,5.41863e+006,249.13,0.8,0.8,0.8
499791,5.4185e+006,269.64,0.8,0.8,0.8
499649,5.41893e+006,256,0.8,0.8,0.8
500189,5.41849e+006,283.26,0.8,0.8,0.8
500071,5.41852e+006,279.45,0.8,0.8,0.8
499764,5.4185e+006,259.19,0.8,0.8,0.8
500126,5.41857e+006,278.92,0.8,0.8,0.8
500165,5.41894e+006,260.93,0.8,0.8,0.8
500118,5.41929e+006,254.26,0.8,0.8,0.8
499808,5.41836e+006,283.66,0.8,0.8,0.8
499831,5.41859e+006,249.8,0.8,0.8,0.8
500009,5.41881e+006,244.84,0.8,0.8,0.8
499547,5.41868e+006,255.68,0.8,0.8,0.8
499730,5.4188e+006,247.55,0.8,0.8,0.8
499596,5.41897e+006,258.54,0.8,0.8,0.8
500340,5.41937e+006,256.54,0.8,0.8,0.8
499641,5.41921e+006,269.02,0.8,0.8,0.8
500134,5.41928e+006,268.13,0.8,0.8,0.8
499975,5.41846e+006,277.97,0.8,0.8,0.8
500041,5.41878e+006,263.59,0.8,0.8,0.8
499765,5.4191e+006,258.07,0.8,0.8,0.8
499655,5.4187e+006,278.67,0.8,0.8,0.8
500166,5.41836e+006,291.66,0.8,0.8,0.8
499452,5.41859e+006,245.27,0.8,0.8,0.8
499528,5.4187e+006,249.44,0.8,0.8,0.8
500131,5.41938e+006,271.86,0.8,0.8,0.8
499812,5.41835e+006,282.66,0.8,0.8,0.8
499716,5.41911e+006,260.66,0.8,0.8,0.8
500003,5.41905e+006,247.94,0.8,0.8,0.8
499891,5.41835e+006,284.14,0.8,0.8,0.8
500198,5.41857e+006,279.33,0.8,0.8,0.8
499830,5.41871e+006,264.97,0.8,0.8,0.8
500275,5.41906e+006,244.29,0.8,0.8,0.8
499790,5.41874e+006,246.99,0.8,0.8,0.8
500491,5.41918e+006,244.07,0.8,0.8,0.8
500030,5.4191e+006,247.72,0.8,0.8,0.8
499519,5.41898e+006,261.22,0.8,0.8,0.8
500018,5.4187e+006,260.17,0.8,0.8,0.8
500152,5.41903e+006,243.71,0.8,0.8,0.8
500335,5.41898e+006,244.69,0.8,0.8,0.8
499692,5.41853e+006,251.76,0.8,0.8,0.8
499797,5.41862e+006,254.41,0.8,0.8,0.8
499609,5.4187e+006,246.92,0.8,0.8,0.8
499759,5.41857e+006,256.17,0.8,0.8,0.8
499795,5.41934e+006,269,0.8,0.8,0.8
499526,5.41857e+006,245.93,0.8,0.8,0.8
499564,5.419e+006,260.53,0.8,0.8,0.8
500007,5.41857e+006,274.67,0.8,0.8,0.8
499769,5.41855e+006,252.9,0.8,0.8,0.8
499547,5.41942e+006,309.8,0.8,0.8,0.8
499491,5.41864e+006,263.57,0.8,0.8,0.8
500027,5.41837e+006,284.48,0.8,0.8,0.8
499817,5.41889e+006,248.29,0.8,0.8,0.8
500390,5.4193e+006,249.4,0.8,0.8,0.8
499514,5.4188e+006,252.74,0.8,0.8,0.8
500107,5.4192e+006,250.93,0.8,0.8,0.8
500237,5.4193e+006,250.87,0.8,0.8,0.8
500471,5.41894e+006,251.16,0.8,0.8,0.8
499582,5.419e+006,260.12,0.8,0.8,0.8
499808,5.41871e+006,244.44,0.8,0.8,0.8
499465,5.41891e+006,259.68,0.8,0.8,0.8
499896,5.41918e+006,254.07,0.8,0.8,0.8
500271,5.41886e+006,254.98,0.8,0.8,0.8
499680,5.41857e+006,246.38,0.8,0.8,0.8
500072,5.41909e+006,246.87,0.8,0.8,0.8
500137,5.41865e+006,275.66,0.8,0.8,0.8
499898,5.41931e+006,264.54,0.8,0.8,0.8
500032,5.41837e+006,284.69,0.8,0.8,0.8
499900,5.41848e+006,272.94,0.8,0.8,0.8
499661,5.41838e+006,261.03,0.8,0.8,0.8
499634,5.4188e+006,249.68,0.8,0.8,0.8
499763,5.41871e+006,281.12,0.8,0.8,0.8
500421,5.41891e+006,276.73,0.8,0.8,0.8
499483,5.41861e+006,246.64,0.8,0.8,0.8
499859,5.41853e+006,269.9,0.8,0.8,0.8
499478,5.41918e+006,282.58,0.8,0.8,0.8
499603,5.41916e+006,268.14,0.8,0.8,0.8
500001,5.4187e+006,258.62,0.8,0.8,0.8
500342,5.41894e+006,247.97,0.8,0.8,0.8
499965,5.41847e+006,277.3,0.8,0.8,0.8
499503,5.41868e+006,245.79,0.8,0.8,0.8
499856,5.41919e+006,255.96,0.8,0.8,0.8
500070,5.4192e+006,278.5,0.8,0.8,0.8
499786,5.41918e+006,259.17,0.8,0.8,0.8
499657,5.41942e+006,297.52,0.8,0.8,0.8
499832,5.41843e+006,278.38,0.8,0.8,0.8
499632,5.4189e+006,254.44,0.8,0.8,0.8
499635,5.41938e+006,291.29,0.8,0.8,0.8
499493,5.41908e+006,268.33,0.8,0.8,0.8
500194,5.41887e+006,259.06,0.8,0.8,0.8
499680,5.41907e+006,260.46,0.8,0.8,0.8
500102,5.41869e+006,271.79,0.8,0.8,0.8
499856,5.41858e+006,256.65,0.8,0.8,0.8
500007,5.41842e+006,282.17,0.8,0.8,0.8
499549,5.4188e+006,251.6,0.8,0.8,0.8
499789,5.41884e+006,246.12,0.8,0.8,0.8
499520,5.4184e+006,258.86,0.8,0.8,0.8
499651,5.41941e+006,296.5,0.8,0.8,0.8
499557,5.41847e+006,258.06,0.8,0.8,0.8
499696,5.41852e+006,257.37,0.8,0.8,0.8
500124,5.41923e+006,251.82,0.8,0.8,0.8
499985,5.41921e+006,252.94,0.8,0.8,0.8
499665,5.41866e+006,255.01,0.8,0.8,0.8
499823,5.41929e+006,263.87,0.8,0.8,0.8
499550,5.41866e+006,252.41,0.8,0.8,0.8
500186,5.41933e+006,257.4,0.8,0.8,0.8
499807,5.41833e+006,264.84,0.8,0.8,0.8
500120,5.41918e+006,249.58,0.8,0.8,0.8
500090,5.4193e+006,255.34,0.8,0.8,0.8
499972,5.41933e+006,264.85,0.8,0.8,0.8
499742,5.41867e+006,244.89,0.8,0.8,0.8
499467,5.41916e+006,280.22,0.8,0.8,0.8
499913,5.41888e+006,244.1,0.8,0.8,0.8
499934,5.41851e+006,277.96,0.8,0.8,0.8
500456,5.41891e+006,255.77,0.8,0.8,0.8
500102,5.4193e+006,254.77,0.8,0.8,0.8
499624,5.41865e+006,265.26,0.8,0.8,0.8
500254,5.41886e+006,255.47,0.8,0.8,0.8
500209,5.41893e+006,268.01,0.8,0.8,0.8
500369,5.41925e+006,246.61,0.8,0.8,0.8
500449,5.41922e+006,243.6,0.8,0.8,0.8
499976,5.41913e+006,250.4,0.8,0.8,0.8
499779,5.41932e+006,267.32,0.8,0.8,0.8
499649,5.41922e+006,295.92,0.8,0.8,0.8
500468,5.41888e+006,254.58,0.8,0.8,0.8
500168,5.4186e+006,277.8,0.8,0.8,0.8
500353,5.4193e+006,249.64,0.8,0.8,0.8
499879,5.41871e+006,246.29,0.8,0.8,0.8
500544,5.41913e+006,243.85,0.8,0.8,0.8
500394,5.41926e+006,246.86,0.8,0.8,0.8
500311,5.41902e+006,244.22,0.8,0.8,0.8
499522,5.41894e+006,259.43,0.8,0.8,0.8
500522,5.41892e+006,252.24,0.8,0.8,0.8
499757,5.41908e+006,257.85,0.8,0.8,0.8
499675,5.41942e+006,295.42,0.8,0.8,0.8
500105,5.41934e+006,257.59,0.8,0.8,0.8
500131,5.4186e+006,278.24,0.8,0.8,0.8
500176,5.41896e+006,243.68,0.8,0.8,0.8
499942,5.41934e+006,266.25,0.8,0.8,0.8
499598,5.41883e+006,251.74,0.8,0.8,0.8
499467,5.41867e+006,260.03,0.8,0.8,0.8
500083,5.41941e+006,262.12,0.8,0.8,0.8
500189,5.41924e+006,250.01,0.8,0.8,0.8
499878,5.41933e+006,266.98,0.8,0.8,0.8
500270,5.41911e+006,258.84,0.8,0.8,0.8
499853,5.41921e+006,257.13,0.8,0.8,0.8
499721,5.41937e+006,274.33,0.8,0.8,0.8
499961,5.41894e+006,297.04,0.8,0.8,0.8
499994,5.41918e+006,251.31,0.8,0.8,0.8
499858,5.41943e+006,276.03,0.8,0.8,0.8
499673,5.41922e+006,269.85,0.8,0.8,0.8
500304,5.41897e+006,244.9,0.8,0.8,0.8
499463,5.41884e+006,256.82,0.8,0.8,0.8
500118,5.41908e+006,246.09,0.8,0.8,0.8
499838,5.41922e+006,258.4,0.8,0.8,0.8
499466,5.41907e+006,268.91,0.8,0.8,0.8
499965,5.41869e+006,248.73,0.8,0.8,0.8
500422,5.41909e+006,251.19,0.8,0.8,0.8
499869,5.4186e+006,251.39,0.8,0.8,0.8
500176,5.41863e+006,276.2,0.8,0.8,0.8
500118,5.41833e+006,290.49,0.8,0.8,0.8
500187,5.4189e+006,258.56,0.8,0.8,0.8
499772,5.41871e+006,244.62,0.8,0.8,0.8
500417,5.41942e+006,276.65,0.8,0.8,0.8
499981,5.41927e+006,258.18,0.8,0.8,0.8
500188,5.41854e+006,280.65,0.8,0.8,0.8
500479,5.41898e+006,247.13,0.8,0.8,0.8
500178,5.41887e+006,262.54,0.8,0.8,0.8
500260,5.41923e+006,247.58,0.8,0.8,0.8
499926,5.41942e+006,271.77,0.8,0.8,0.8
499957,5.41914e+006,251.17,0.8,0.8,0.8
499696,5.41848e+006,265.77,0.8,0.8,0.8
500170,5.41844e+006,286.79,0.8,0.8,0.8
500076,5.41917e+006,274.39,0.8,0.8,0.8
499919,5.41888e+006,244.01,0.8,0.8,0.8
500070,5.41914e+006,248.3,0.8,0.8,0.8
500532,5.41901e+006,251.86,0.8,0.8,0.8
500095,5.41837e+006,293.19,0.8,0.8,0.8
499476,5.41867e+006,277.03,0.8,0.8,0.8
499974,5.41938e+006,267.79,0.8,0.8,0.8
500414,5.41942e+006,279.72,0.8,0.8,0.8
500080,5.41934e+006,258.33,0.8,0.8,0.8
500049,5.41913e+006,248.92,0.8,0.8,0.8
500281,5.41939e+006,274.48,0.8,0.8,0.8
500142,5.41884e+006,259.41,0.8,0.8,0.8
499513,5.41872e+006,246.54,0.8,0.8,0.8
499484,5.41874e+006,246.8,0.8,0.8,0.8
500412,5.4191e+006,243.85,0.8,0.8,0.8
499529,5.41915e+006,272.29,0.8,0.8,0.8
500097,5.41896e+006,244.18,0.8,0.8,0.8
499905,5.41895e+006,247.42,0.8,0.8,0.8
499749,5.41934e+006,269.66,0.8,0.8,0.8
500438,5.41883e+006,257.5,0.8,0.8,0.8
500192,5.41838e+006,290.56,0.8,0.8,0.8
500031,5.41903e+006,246.47,0.8,0.8,0.8
500325,5.41923e+006,246.55,0.8,0.8,0.8
499862,5.41942e+006,275.19,0.8,0.8,0.8
499840,5.41847e+006,268.74,0.8,0.8,0.8
500090,5.4191e+006,246.81,0.8,0.8,0.8
499941,5.41932e+006,264.51,0.8,0.8,0.8
499531,5.41836e+006,267.55,0.8,0.8,0.8
500315,5.41911e+006,244.1,0.8,0.8,0.8
500054,5.41943e+006,262.73,0.8,0.8,0.8
499890,5.4191e+006,252.56,0.8,0.8,0.8
499839,5.41865e+006,246.75,0.8,0.8,0.8
499767,5.41851e+006,258.23,0.8,0.8,0.8
500331,5.41899e+006,244.54,0.8,0.8,0.8
499456,5.41838e+006,254.96,0.8,0.8,0.8
499509,5.41851e+006,247.16,0.8,0.8,0.8
500238,5.41933e+006,253.45,0.8,0.8,0.8
500286,5.41913e+006,263.48,0.8,0.8,0.8
500352,5.41885e+006,256.59,0.8,0.8,0.8
499851,5.41848e+006,269.61,0.8,0.8,0.8
499575,5.41833e+006,266.81,0.8,0.8,0.8
500192,5.4189e+006,252.9,0.8,0.8,0.8
499459,5.41844e+006,248.64,0.8,0.8,0.8
500088,5.4188e+006,265.83,0.8,0.8,0.8
500073,5.41912e+006,247.58,0.8,0.8,0.8
500199,5.41923e+006,249.26,0.8,0.8,0.8
500428,5.41882e+006,258.6,0.8,0.8,0.8
499498,5.41908e+006,268.2,0.8,0.8,0.8
499935,5.41911e+006,251.03,0.8,0.8,0.8
499531,5.41843e+006,251.92,0.8,0.8,0.8
499954,5.41899e+006,247.7,0.8,0.8,0.8
499996,5.41841e+006,282.73,0.8,0.8,0.8
499670,5.41869e+006,278.97,0.8,0.8,0.8
500495,5.41914e+006,244.03,0.8,0.8,0.8
500031,5.41884e+006,244.37,0.8,0.8,0.8
499582,5.41851e+006,255.44,0.8,0.8,0.8
499935,5.41899e+006,248.59,0.8,0.8,0.8
500215,5.41845e+006,287.38,0.8,0.8,0.8
499992,5.41835e+006,285.19,0.8,0.8,0.8
499453,5.41888e+006,259.42,0.8,0.8,0.8
499933,5.41934e+006,266.39,0.8,0.8,0.8
499552,5.41846e+006,257.44,0.8,0.8,0.8
499974,5.41852e+006,274.38,0.8,0.8,0.8
499678,5.41897e+006,256.53,0.8,0.8,0.8
500480,5.4189e+006,253.01,0.8,0.8,0.8
499539,5.41941e+006,312.53,0.8,0.8,0.8
499583,5.4193e+006,286.61,0.8,0.8,0.8
499494,5.4186e+006,245.1,0.8,0.8,0.8
500144,5.41895e+006,273.61,0.8,0.8,0.8
499764,5.41872e+006,258.35,0.8,0.8,0.8
500455,5.41914e+006,262.38,0.8,0.8,0.8
499794,5.41923e+006,260.55,0.8,0.8,0.8
500190,5.41882e+006,268.5,0.8,0.8,0.8
499952,5.41932e+006,264.56,0.8,0.8,0.8
499588,5.41866e+006,251.51,0.8,0.8,0.8
499915,5.41859e+006,259.85,0.8,0.8,0.8
500074,5.41937e+006,260.22,0.8,0.8,0.8
500126,5.41913e+006,256.01,0.8,0.8,0.8
499766,5.41894e+006,252.32,0.8,0.8,0.8
500109,5.41913e+006,247.61,0.8,0.8,0.8
499534,5.41907e+006,265.46,0.8,0.8,0.8
499927,5.41867e+006,246.71,0.8,0.8,0.8
500405,5.41922e+006,245.5,0.8,0.8,0.8
499805,5.41875e+006,263.51,0.8,0.8,0.8
499701,5.41882e+006,250.38,0.8,0.8,0.8
499727,5.41894e+006,253.36,0.8,0.8,0.8
500064,5.41834e+006,287.54,0.8,0.8,0.8
500492,5.41889e+006,253.89,0.8,0.8,0.8
499793,5.41906e+006,255.27,0.8,0.8,0.8
500100,5.41916e+006,257.89,0.8,0.8,0.8
500230,5.41852e+006,282.82,0.8,0.8,0.8
499659,5.4193e+006,277.46,0.8,0.8,0.8
499694,5.41937e+006,276.76,0.8,0.8,0.8
500206,5.41847e+006,285.35,0.8,0.8,0.8
499655,5.41917e+006,266.64,0.8,0.8,0.8
499922,5.41885e+006,244.84,0.8,0.8,0.8
500097,5.41888e+006,248.56,0.8,0.8,0.8
499675,5.41939e+006,285.09,0.8,0.8,0.8
499569,5.41934e+006,293.71,0.8,0.8,0.8
500409,5.41881e+006,259.62,0.8,0.8,0.8
500435,5.41938e+006,260.56,0.8,0.8,0.8
500138,5.41935e+006,263.13,0.8,0.8,0.8
500041,5.41851e+006,278.75,0.8,0.8,0.8
500373,5.41941e+006,266.91,0.8,0.8,0.8
500220,5.41934e+006,260.54,0.8,0.8,0.8
500207,5.4193e+006,251.58,0.8,0.8,0.8
499849,5.41868e+006,246.07,0.8,0.8,0.8
499678,5.41921e+006,285.16,0.8,0.8,0.8
499488,5.4184e+006,264.01,0.8,0.8,0.8
499549,5.41934e+006,291.68,0.8,0.8,0.8
500207,5.41851e+006,282.86,0.8,0.8,0.8
499899,5.41853e+006,272.72,0.8,0.8,0.8
499925,5.41865e+006,259.1,0.8,0.8,0.8
499895,5.41877e+006,263.9,0.8,0.8,0.8
500335,5.41891e+006,253.08,0.8,0.8,0.8
499473,5.41857e+006,245.49,0.8,0.8,0.8
499795,5.41856e+006,258.02,0.8,0.8,0.8
500478,5.41887e+006,255.59,0.8,0.8,0.8
500034,5.41915e+006,249.64,0.8,0.8,0.8
500232,5.41909e+006,260.44,0.8,0.8,0.8
499809,5.41855e+006,253.24,0.8,0.8,0.8
499838,5.41898e+006,259.91,0.8,0.8,0.8
500016,5.41903e+006,247.26,0.8,0.8,0.8
499564,5.41901e+006,261.11,0.8,0.8,0.8
499788,5.41881e+006,244.54,0.8,0.8,0.8
499590,5.4194e+006,300.17,0.8,0.8,0.8
499516,5.41887e+006,256.21,0.8,0.8,0.8
500397,5.41893e+006,252.42,0.8,0.8,0.8
499820,5.41837e+006,282.02,0.8,0.8,0.8
499832,5.4193e+006,264.31,0.8,0.8,0.8
499763,5.41942e+006,275.96,0.8,0.8,0.8
499676,5.4192e+006,285.2,0.8,0.8,0.8
500203,5.41882e+006,262.51,0.8,0.8,0.8
499543,5.41895e+006,258.9,0.8,0.8,0.8
500046,5.41935e+006,267.56,0.8,0.8,0.8
500051,5.41866e+006,272.71,0.8,0.8,0.8
499971,5.41896e+006,245.61,0.8,0.8,0.8
499951,5.41928e+006,261.32,0.8,0.8,0.8
499723,5.41871e+006,244.31,0.8,0.8,0.8
500439,5.4194e+006,268.3,0.8,0.8,0.8
500307,5.41913e+006,253.06,0.8,0.8,0.8
500337,5.41889e+006,253.15,0.8,0.8,0.8
500340,5.41894e+006,248.34,0.8,0.8,0.8
500271,5.41905e+006,244.31,0.8,0.8,0.8
500233,5.41938e+006,270.18,0.8,0.8,0.8
500481,5.41906e+006,243.76,0.8,0.8,0.8
499737,5.41934e+006,271.04,0.8,0.8,0.8
499464,5.41842e+006,249.5,0.8,0.8,0.8
500031,5.41914e+006,249.7,0.8,0.8,0.8
499521,5.41836e+006,267.82,0.8,0.8,0.8
500139,5.41887e+006,254.47,0.8,0.8,0.8
499643,5.41942e+006,298.61,0.8,0.8,0.8
500075,5.41928e+006,273.26,0.8,0.8,0.8
499473,5.41838e+006,260.72,0.8,0.8,0.8
499510,5.41894e+006,259.75,0.8,0.8,0.8
499885,5.41888e+006,244.25,0.8,0.8,0.8
500065,5.41838e+006,285.66,0.8,0.8,0.8
500005,5.41931e+006,262.03,0.8,0.8,0.8
500472,5.41917e+006,244.22,0.8,0.8,0.8
500319,5.41885e+006,255.78,0.8,0.8,0.8
499500,5.41834e+006,269.57,0.8,0.8,0.8
500054,5.4186e+006,275.46,0.8,0.8,0.8
500116,5.4184e+006,287.88,0.8,0.8,0.8
500517,5.41909e+006,244.02,0.8,0.8,0.8
499872,5.41842e+006,280.05,0.8,0.8,0.8
500190,5.41894e+006,242.57,0.8,0.8,0.8
500411,5.41916e+006,254.37,0.8,0.8,0.8
500189,5.41919e+006,248.75,0.8,0.8,0.8
500279,5.41878e+006,264.96,0.8,0.8,0.8
500026,5.41928e+006,257.58,0.8,0.8,0.8
499488,5.4191e+006,270.23,0.8,0.8,0.8
500533,5.41889e+006,254.02,0.8,0.8,0.8
500392,5.41905e+006,244.01,0.8,0.8,0.8
499962,5.41902e+006,248.94,0.8,0.8,0.8
499528,5.4186e+006,256.79,0.8,0.8,0.8
500212,5.41932e+006,253.44,0.8,0.8,0.8
499895,5.41904e+006,251.28,0.8,0.8,0.8
500358,5.41879e+006,261.56,0.8,0.8,0.8
500128,5.41889e+006,242.64,0.8,0.8,0.8
500037,5.41871e+006,262.85,0.8,0.8,0.8
500182,5.41895e+006,250.92,0.8,0.8,0.8
500446,5.41911e+006,244.1,0.8,0.8,0.8
499902,5.4184e+006,281.85,0.8,0.8,0.8
499842,5.41863e+006,246.83,0.8,0.8,0.8
500158,5.41924e+006,251.33,0.8,0.8,0.8
499568,5.41842e+006,254.71,0.8,0.8,0.8
500315,5.41899e+006,244.41,0.8,0.8,0.8
500058,5.41903e+006,245.66,0.8,0.8,0.8
499586,5.41837e+006,259.06,0.8,0.8,0.8
499837,5.41903e+006,252.88,0.8,0.8,0.8
500093,5.41903e+006,244.5,0.8,0.8,0.8
499943,5.41893e+006,245.17,0.8,0.8,0.8
500172,5.41894e+006,242.49,0.8,0.8,0.8
499858,5.41897e+006,254.37,0.8,0.8,0.8
499968,5.41868e+006,265.28,0.8,0.8,0.8
500549,5.4189e+006,253.43,0.8,0.8,0.8
499589,5.41861e+006,257.87,0.8,0.8,0.8
500519,5.41926e+006,255.92,0.8,0.8,0.8
499930,5.41851e+006,276.63,0.8,0.8,0.8
499848,5.41854e+006,266.26,0.8,0.8,0.8
500232,5.41916e+006,246.53,0.8,0.8,0.8
499948,5.41862e+006,266.92,0.8,0.8,0.8
500378,5.41892e+006,252.37,0.8,0.8,0.8
500214,5.41899e+006,242.48,0.8,0.8,0.8
499928,5.41911e+006,251.14,0.8,0.8,0.8
500148,5.4185e+006,282.12,0.8,0.8,0.8
499792,5.41878e+006,244.19,0.8,0.8,0.8
499897,5.41921e+006,255.88,0.8,0.8,0.8
500216,5.41933e+006,253.84,0.8,0.8,0.8
500282,5.41943e+006,283.4,0.8,0.8,0.8
499902,5.41862e+006,257.89,0.8,0.8,0.8
499574,5.41903e+006,262.01,0.8,0.8,0.8
499458,5.41907e+006,269.23,0.8,0.8,0.8
499677,5.41887e+006,251.53,0.8,0.8,0.8
499923,5.41927e+006,260.53,0.8,0.8,0.8
499654,5.41898e+006,257.54,0.8,0.8,0.8
500021,5.41908e+006,247.83,0.8,0.8,0.8
499698,5.4193e+006,271.77,0.8,0.8,0.8
500439,5.41938e+006,272,0.8,0.8,0.8
500162,5.41901e+006,243.91,0.8,0.8,0.8
499988,5.41889e+006,255.46,0.8,0.8,0.8
499682,5.41846e+006,258.56,0.8,0.8,0.8
499784,5.41891e+006,250.64,0.8,0.8,0.8
499505,5.41888e+006,256.95,0.8,0.8,0.8
499616,5.41846e+006,254.86,0.8,0.8,0.8
499543,5.41887e+006,255.9,0.8,0.8,0.8
500396,5.41942e+006,300.81,0.8,0.8,0.8
500419,5.41934e+006,251.43,0.8,0.8,0.8
499810,5.41918e+006,257.52,0.8,0.8,0.8
500461,5.4192e+006,245.59,0.8,0.8,0.8
499665,5.41909e+006,261.75,0.8,0.8,0.8
499856,5.41889e+006,246.18,0.8,0.8,0.8
499550,5.41939e+006,302.16,0.8,0.8,0.8
500261,5.41941e+006,274.08,0.8,0.8,0.8
499753,5.41903e+006,255.57,0.8,0.8,0.8
500110,5.41899e+006,243.94,0.8,0.8,0.8
499952,5.41851e+006,278.35,0.8,0.8,0.8
499592,5.41916e+006,269.03,0.8,0.8,0.8
500217,5.41935e+006,257.87,0.8,0.8,0.8
499620,5.41941e+006,298.6,0.8,0.8,0.8
500072,5.41943e+006,267.47,0.8,0.8,0.8
499535,5.41913e+006,270.71,0.8,0.8,0.8
499741,5.41841e+006,263.71,0.8,0.8,0.8
500066,5.41932e+006,265.22,0.8,0.8,0.8
499884,5.41895e+006,248.69,0.8,0.8,0.8
499528,5.41891e+006,257.96,0.8,0.8,0.8
500375,5.41904e+006,244.02,0.8,0.8,0.8
500017,5.41834e+006,286.62,0.8,0.8,0.8
499857,5.41905e+006,286.56,0.8,0.8,0.8
500239,5.41923e+006,248.25,0.8,0.8,0.8
499466,5.41911e+006,273.33,0.8,0.8,0.8
499608,5.41932e+006,286.34,0.8,0.8,0.8
499701,5.41856e+006,250.44,0.8,0.8,0.8
500391,5.41926e+006,246.99,0.8,0.8,0.8
499963,5.41856e+006,272.11,0.8,0.8,0.8
499464,5.41933e+006,300.84,0.8,0.8,0.8
500459,5.4188e+006,259.55,0.8,0.8,0.8
500527,5.4189e+006,253.83,0.8,0.8,0.8
500219,5.41895e+006,242.94,0.8,0.8,0.8
499747,5.41911e+006,259.39,0.8,0.8,0.8
500141,5.41933e+006,256.62,0.8,0.8,0.8
499728,5.41844e+006,265.82,0.8,0.8,0.8
500360,5.41928e+006,248.59,0.8,0.8,0.8
500307,5.4194e+006,278.36,0.8,0.8,0.8
499907,5.41881e+006,244.81,0.8,0.8,0.8
500113,5.41912e+006,247.37,0.8,0.8,0.8
499622,5.4189e+006,255.35,0.8,0.8,0.8
499808,5.41845e+006,276.88,0.8,0.8,0.8
500174,5.41914e+006,247.59,0.8,0.8,0.8
499999,5.41882e+006,244.28,0.8,0.8,0.8
500341,5.41931e+006,250.64,0.8,0.8,0.8
499637,5.41834e+006,274.09,0.8,0.8,0.8
500222,5.4192e+006,247.72,0.8,0.8,0.8
500246,5.41904e+006,258.79,0.8,0.8,0.8
500370,5.41909e+006,244.07,0.8,0.8,0.8
499564,5.41868e+006,249.54,0.8,0.8,0.8
500139,5.41893e+006,257.46,0.8,0.8,0.8
499502,5.41907e+006,266.84,0.8,0.8,0.8
499975,5.41891e+006,244.2,0.8,0.8,0.8
499558,5.41886e+006,255.26,0.8,0.8,0.8
500012,5.41896e+006,244.11,0.8,0.8,0.8
499766,5.41853e+006,255.73,0.8,0.8,0.8
500345,5.41879e+006,261.63,0.8,0.8,0.8
500008,5.41888e+006,244.69,0.8,0.8,0.8
499599,5.41838e+006,264.25,0.8,0.8,0.8
499662,5.41907e+006,261.1,0.8,0.8,0.8
499669,5.41865e+006,260.12,0.8,0.8,0.8
500516,5.41918e+006,244.03,0.8,0.8,0.8
500254,5.41888e+006,254.23,0.8,0.8,0.8
500222,5.41912e+006,245.57,0.8,0.8,0.8
500399,5.4188e+006,260.64,0.8,0.8,0.8
499904,5.41839e+006,282.65,0.8,0.8,0.8
500057,5.41835e+006,286.8,0.8,0.8,0.8
500276,5.4193e+006,250.23,0.8,0.8,0.8
499732,5.41921e+006,263.79,0.8,0.8,0.8
500274,5.41932e+006,251.75,0.8,0.8,0.8
499914,5.41846e+006,278.42,0.8,0.8,0.8
500445,5.41922e+006,263.11,0.8,0.8,0.8
500150,5.41921e+006,250.63,0.8,0.8,0.8
500326,5.41907e+006,244.1,0.8,0.8,0.8
499759,5.41856e+006,251.08,0.8,0.8,0.8
500145,5.41887e+006,249.17,0.8,0.8,0.8
499944,5.41913e+006,251.49,0.8,0.8,0.8
499676,5.41834e+006,286.47,0.8,0.8,0.8
500051,5.41877e+006,269.68,0.8,0.8,0.8
500341,5.41879e+006,261.58,0.8,0.8,0.8
500000,5.41876e+006,254.65,0.8,0.8,0.8
499471,5.41839e+006,254.67,0.8,0.8,0.8
499945,5.41891e+006,244.29,0.8,0.8,0.8
500193,5.41909e+006,245.59,0.8,0.8,0.8
499654,5.41856e+006,249.3,0.8,0.8,0.8
499653,5.41905e+006,260.78,0.8,0.8,0.8
500103,5.41933e+006,260.68,0.8,0.8,0.8
499759,5.41846e+006,263.55,0.8,0.8,0.8
499619,5.41904e+006,260.8,0.8,0.8,0.8
500315,5.41922e+006,246.28,0.8,0.8,0.8
499972,5.41912e+006,250.34,0.8,0.8,0.8
500167,5.41913e+006,246.96,0.8,0.8,0.8
499716,5.41897e+006,255.29,0.8,0.8,0.8
499712,5.41914e+006,261.9,0.8,0.8,0.8
500420,5.41885e+006,257.01,0.8,0.8,0.8
499808,5.41838e+006,281.02,0.8,0.8,0.8
499556,5.41904e+006,263.12,0.8,0.8,0.8
499599,5.41851e+006,250.61,0.8,0.8,0.8
499733,5.41843e+006,269.31,0.8,0.8,0.8
499651,5.41929e+006,278.83,0.8,0.8,0.8
500386,5.4193e+006,249.51,0.8,0.8,0.8
499913,5.41905e+006,251.06,0.8,0.8,0.8
500415,5.41927e+006,247.08,0.8,0.8,0.8
499739,5.4187e+006,277.26,0.8,0.8,0.8
499975,5.41863e+006,271.09,0.8,0.8,0.8
500216,5.41837e+006,292.66,0.8,0.8,0.8
499669,5.41841e+006,268.3,0.8,0.8,0.8
500056,5.41856e+006,277.63,0.8,0.8,0.8
500541,5.41908e+006,244.03,0.8,0.8,0.8
500180,5.41936e+006,259.88,0.8,0.8,0.8
499846,5.41878e+006,244.57,0.8,0.8,0.8
499716,5.4188e+006,251.9,0.8,0.8,0.8
500528,5.41908e+006,244.01,0.8,0.8,0.8
499567,5.41854e+006,247.71,0.8,0.8,0.8
500254,5.41909e+006,259.65,0.8,0.8,0.8
500060,5.41903e+006,245.44,0.8,0.8,0.8
499673,5.41862e+006,258.87,0.8,0.8,0.8
499479,5.41839e+006,267.51,0.8,0.8,0.8
499696,5.41834e+006,276.84,0.8,0.8,0.8
500187,5.41934e+006,262.67,0.8,0.8,0.8
500102,5.41939e+006,269.45,0.8,0.8,0.8
500180,5.41895e+006,269.74,0.8,0.8,0.8
500199,5.41918e+006,248.05,0.8,0.8,0.8
499821,5.41939e+006,274.26,0.8,0.8,0.8
500140,5.41917e+006,259.31,0.8,0.8,0.8
500152,5.41922e+006,275.09,0.8,0.8,0.8
499639,5.41838e+006,269.51,0.8,0.8,0.8
499506,5.41909e+006,268.73,0.8,0.8,0.8
499972,5.41848e+006,277.82,0.8,0.8,0.8
499668,5.4189e+006,253.43,0.8,0.8,0.8
499674,5.41837e+006,265.67,0.8,0.8,0.8
499483,5.41851e+006,249.86,0.8,0.8,0.8
499654,5.41914e+006,265.06,0.8,0.8,0.8
499615,5.41886e+006,253.26,0.8,0.8,0.8
500246,5.4189e+006,248.34,0.8,0.8,0.8
500411,5.41925e+006,246.13,0.8,0.8,0.8
500408,5.41905e+006,243.96,0.8,0.8,0.8
499516,5.41924e+006,286.72,0.8,0.8,0.8
500225,5.41881e+006,262.63,0.8,0.8,0.8
499596,5.41933e+006,289.82,0.8,0.8,0.8
500288,5.4193e+006,250.36,0.8,0.8,0.8
500419,5.41888e+006,253.5,0.8,0.8,0.8
499499,5.41934e+006,291.7,0.8,0.8,0.8
499976,5.41882e+006,244.2,0.8,0.8,0.8
499634,5.41856e+006,247.21,0.8,0.8,0.8
499637,5.41909e+006,263.47,0.8,0.8,0.8
499846,5.41839e+006,281.02,0.8,0.8,0.8
500257,5.41924e+006,247.99,0.8,0.8,0.8
500238,5.41885e+006,256.82,0.8,0.8,0.8
499855,5.41873e+006,260.01,0.8,0.8,0.8
499601,5.4187e+006,247.66,0.8,0.8,0.8
499619,5.4188e+006,249.79,0.8,0.8,0.8
499866,5.41855e+006,274.28,0.8,0.8,0.8
500032,5.41853e+006,277.59,0.8,0.8,0.8
500363,5.41893e+006,253.01,0.8,0.8,0.8
500280,5.419e+006,244.4,0.8,0.8,0.8
500315,5.41915e+006,267.54,0.8,0.8,0.8
499961,5.41843e+006,286.39,0.8,0.8,0.8
500348,5.41892e+006,252.96,0.8,0.8,0.8
499930,5.41927e+006,260.47,0.8,0.8,0.8
500342,5.41901e+006,244.15,0.8,0.8,0.8
499692,5.41891e+006,253.18,0.8,0.8,0.8
500510,5.41911e+006,243.93,0.8,0.8,0.8
499681,5.41849e+006,264.61,0.8,0.8,0.8
500141,5.41937e+006,273.78,0.8,0.8,0.8
499631,5.41922e+006,272.72,0.8,0.8,0.8
499542,5.41836e+006,266.66,0.8,0.8,0.8
500264,5.4191e+006,252.58,0.8,0.8,0.8
499563,5.41854e+006,247.71,0.8,0.8,0.8
499639,5.41884e+006,251.8,0.8,0.8,0.8
499533,5.41942e+006,307.79,0.8,0.8,0.8
500355,5.41925e+006,246.89,0.8,0.8,0.8
500447,5.41886e+006,255.91,0.8,0.8,0.8
500205,5.41892e+006,272.59,0.8,0.8,0.8
499560,5.41921e+006,276.32,0.8,0.8,0.8
500064,5.41849e+006,279.96,0.8,0.8,0.8
500145,5.41855e+006,279.76,0.8,0.8,0.8
499845,5.41931e+006,265.42,0.8,0.8,0.8
500079,5.41932e+006,257.3,0.8,0.8,0.8
499739,5.41931e+006,268.43,0.8,0.8,0.8
499557,5.41886e+006,254.96,0.8,0.8,0.8
499645,5.41907e+006,261.97,0.8,0.8,0.8
500025,5.41917e+006,250.09,0.8,0.8,0.8
500546,5.419e+006,246.42,0.8,0.8,0.8
499890,5.41893e+006,247.67,0.8,0.8,0.8
500084,5.41833e+006,289.29,0.8,0.8,0.8
499568,5.41867e+006,249.11,0.8,0.8,0.8
500050,5.41907e+006,246.93,0.8,0.8,0.8
500210,5.41936e+006,259.13,0.8,0.8,0.8
500020,5.41882e+006,244.76,0.8,0.8,0.8
500527,5.41904e+006,246.74,0.8,0.8,0.8
499590,5.41889e+006,255.57,0.8,0.8,0.8
499513,5.41939e+006,305.02,0.8,0.8,0.8
499630,5.4192e+006,269.62,0.8,0.8,0.8
499590,5.41891e+006,256.56,0.8,0.8,0.8
499937,5.4185e+006,274.67,0.8,0.8,0.8
500142,5.41912e+006,246.9,0.8,0.8,0.8
500055,5.41893e+006,244.14,0.8,0.8,0.8
500327,5.41936e+006,255.57,0.8,0.8,0.8
500074,5.41891e+006,244.07,0.8,0.8,0.8
499946,5.41835e+006,285.51,0.8,0.8,0.8
499621,5.41917e+006,268.49,0.8,0.8,0.8
499726,5.41891e+006,252.42,0.8,0.8,0.8
499612,5.41837e+006,258.1,0.8,0.8,0.8
499693,5.41849e+006,262.12,0.8,0.8,0.8
499548,5.41858e+006,251.67,0.8,0.8,0.8
499482,5.41905e+006,266.8,0.8,0.8,0.8
500391,5.41925e+006,246.37,0.8,0.8,0.8
500369,5.41938e+006,258.66,0.8,0.8,0.8
499606,5.41837e+006,264.32,0.8,0.8,0.8
500030,5.41889e+006,297.76,0.8,0.8,0.8
499808,5.41931e+006,265.51,0.8,0.8,0.8
500162,5.41852e+006,281.3,0.8,0.8,0.8
500142,5.41909e+006,245.74,0.8,0.8,0.8
499511,5.4187e+006,254.4,0.8,0.8,0.8
499732,5.41885e+006,250.04,0.8,0.8,0.8
499869,5.41902e+006,251.63,0.8,0.8,0.8
500340,5.4194e+006,265.64,0.8,0.8,0.8
499867,5.41892e+006,247.42,0.8,0.8,0.8
499994,5.41884e+006,244.11,0.8,0.8,0.8
500249,5.41888e+006,254.27,0.8,0.8,0.8
500059,5.4194e+006,262.7,0.8,0.8,0.8
499908,5.41922e+006,256.03,0.8,0.8,0.8
499756,5.41892e+006,251.46,0.8,0.8,0.8
499842,5.41923e+006,258.98,0.8,0.8,0.8
499927,5.41851e+006,274.11,0.8,0.8,0.8
500111,5.41921e+006,256.99,0.8,0.8,0.8
499455,5.41855e+006,250.71,0.8,0.8,0.8
499777,5.41877e+006,249.67,0.8,0.8,0.8
499617,5.41865e+006,252.73,0.8,0.8,0.8
500062,5.41931e+006,257.25,0.8,0.8,0.8
500257,5.41886e+006,255.22,0.8,0.8,0.8
500012,5.4188e+006,260.46,0.8,0.8,0.8
499690,5.41851e+006,257.15,0.8,0.8,0.8
499979,5.41859e+006,272.13,0.8,0.8,0.8
500432,5.41892e+006,252.48,0.8,0.8,0.8
500283,5.41928e+006,249.27,0.8,0.8,0.8
499995,5.41895e+006,244.27,0.8,0.8,0.8
500139,5.41895e+006,269.19,0.8,0.8,0.8
499459,5.41849e+006,246.72,0.8,0.8,0.8
500095,5.41896e+006,244.24,0.8,0.8,0.8
499716,5.4188e+006,247.5,0.8,0.8,0.8
500157,5.41934e+006,265.99,0.8,0.8,0.8
499875,5.41942e+006,274.35,0.8,0.8,0.8
500539,5.41904e+006,259.94,0.8,0.8,0.8
500064,5.41935e+006,267.17,0.8,0.8,0.8
500231,5.41851e+006,283.46,0.8,0.8,0.8
499706,5.41833e+006,278.31,0.8,0.8,0.8
500128,5.41837e+006,285.62,0.8,0.8,0.8
500246,5.41881e+006,261.99,0.8,0.8,0.8
500059,5.41888e+006,244.31,0.8,0.8,0.8
500353,5.41918e+006,249.84,0.8,0.8,0.8
499889,5.41861e+006,258.83,0.8,0.8,0.8
500090,5.41931e+006,262.06,0.8,0.8,0.8
499610,5.41884e+006,252.17,0.8,0.8,0.8
500231,5.41935e+006,259.84,0.8,0.8,0.8
499737,5.41854e+006,260.33,0.8,0.8,0.8
499640,5.41867e+006,272.4,0.8,0.8,0.8
499540,5.4187e+006,246.26,0.8,0.8,0.8
500018,5.41935e+006,263.88,0.8,0.8,0.8
500436,5.41902e+006,244.12,0.8,0.8,0.8
500527,5.41899e+006,247.48,0.8,0.8,0.8
499823,5.4192e+006,258.01,0.8,0.8,0.8
500046,5.419e+006,244.63,0.8,0.8,0.8
499986,5.41895e+006,244.65,0.8,0.8,0.8
499514,5.41842e+006,251.39,0.8,0.8,0.8
499970,5.41869e+006,259.24,0.8,0.8,0.8
499634,5.4194e+006,295.4,0.8,0.8,0.8
500010,5.41934e+006,269.07,0.8,0.8,0.8
500508,5.41892e+006,252.03,0.8,0.8,0.8
500379,5.41891e+006,254.84,0.8,0.8,0.8
500428,5.41919e+006,251.01,0.8,0.8,0.8
499884,5.41901e+006,250.94,0.8,0.8,0.8
499890,5.41885e+006,244.23,0.8,0.8,0.8
499518,5.41865e+006,265.21,0.8,0.8,0.8
499678,5.41935e+006,277.59,0.8,0.8,0.8
500131,5.4188e+006,290.89,0.8,0.8,0.8
500454,5.41886e+006,255.86,0.8,0.8,0.8
499705,5.4187e+006,248.17,0.8,0.8,0.8
499915,5.41941e+006,272.05,0.8,0.8,0.8
499522,5.41907e+006,266.09,0.8,0.8,0.8
499606,5.41868e+006,246.07,0.8,0.8,0.8
499796,5.41874e+006,259.05,0.8,0.8,0.8
500549,5.41883e+006,257.57,0.8,0.8,0.8
499467,5.41886e+006,257.8,0.8,0.8,0.8
499772,5.41872e+006,244.56,0.8,0.8,0.8
499734,5.41872e+006,244.45,0.8,0.8,0.8
500355,5.41935e+006,254.02,0.8,0.8,0.8
500388,5.41927e+006,247.88,0.8,0.8,0.8
500517,5.41906e+006,243.82,0.8,0.8,0.8
499691,5.41853e+006,255.29,0.8,0.8,0.8
499690,5.41892e+006,253.93,0.8,0.8,0.8
499814,5.4188e+006,244.41,0.8,0.8,0.8
499514,5.41873e+006,247.14,0.8,0.8,0.8
499990,5.41869e+006,258.66,0.8,0.8,0.8
500438,5.41915e+006,244.25,0.8,0.8,0.8
500023,5.41845e+006,281.24,0.8,0.8,0.8
500141,5.41941e+006,267.38,0.8,0.8,0.8
500194,5.41942e+006,272.24,0.8,0.8,0.8
500090,5.41853e+006,279.67,0.8,0.8,0.8
499517,5.41855e+006,246.1,0.8,0.8,0.8
499866,5.41851e+006,279.72,0.8,0.8,0.8
499564,5.41867e+006,256.95,0.8,0.8,0.8
500024,5.41931e+006,275.3,0.8,0.8,0.8
499841,5.41938e+006,272.7,0.8,0.8,0.8
499851,5.41899e+006,260.54,0.8,0.8,0.8
499944,5.41931e+006,264,0.8,0.8,0.8
499599,5.41882e+006,251.14,0.8,0.8,0.8
500400,5.41926e+006,246.77,0.8,0.8,0.8
500005,5.41943e+006,266.55,0.8,0.8,0.8
499494,5.41896e+006,261.12,0.8,0.8,0.8
499824,5.41877e+006,244.48,0.8,0.8,0.8
500068,5.41917e+006,258.78,0.8,0.8,0.8
500062,5.41839e+006,285.55,0.8,0.8,0.8
499464,5.41918e+006,284.4,0.8,0.8,0.8
499622,5.41871e+006,246.49,0.8,0.8,0.8
499901,5.41931e+006,264.23,0.8,0.8,0.8
499745,5.41866e+006,243.36,0.8,0.8,0.8
500406,5.41913e+006,244.28,0.8,0.8,0.8
499980,5.41908e+006,248.61,0.8,0.8,0.8
500324,5.41941e+006,279.05,0.8,0.8,0.8
500316,5.4194e+006,271.61,0.8,0.8,0.8
500146,5.41914e+006,251.45,0.8,0.8,0.8
500386,5.41913e+006,243.89,0.8,0.8,0.8
500237,5.41895e+006,244.78,0.8,0.8,0.8
499516,5.41907e+006,266.36,0.8,0.8,0.8
499472,5.41841e+006,250.25,0.8,0.8,0.8
499869,5.41892e+006,247.5,0.8,0.8,0.8
500004,5.41892e+006,244.16,0.8,0.8,0.8
499699,5.41841e+006,258.51,0.8,0.8,0.8
500139,5.41899e+006,244.15,0.8,0.8,0.8
500168,5.41909e+006,245.44,0.8,0.8,0.8
500079,5.41909e+006,246.57,0.8,0.8,0.8
499531,5.41859e+006,245.46,0.8,0.8,0.8
500434,5.41881e+006,259.08,0.8,0.8,0.8
499807,5.41879e+006,244.39,0.8,0.8,0.8
499590,5.4193e+006,286.78,0.8,0.8,0.8
499619,5.41893e+006,256.66,0.8,0.8,0.8
499920,5.41893e+006,245.7,0.8,0.8,0.8
500095,5.41862e+006,276.14,0.8,0.8,0.8
499878,5.41856e+006,268.16,0.8,0.8,0.8
500246,5.41907e+006,242.44,0.8,0.8,0.8
500027,5.41931e+006,278.7,0.8,0.8,0.8
499954,5.41885e+006,244.78,0.8,0.8,0.8
500136,5.41859e+006,278.32,0.8,0.8,0.8
499681,5.41914e+006,263.69,0.8,0.8,0.8
500337,5.41937e+006,258.24,0.8,0.8,0.8
500268,5.4194e+006,271.32,0.8,0.8,0.8
499584,5.41901e+006,260.29,0.8,0.8,0.8
499714,5.41849e+006,267.27,0.8,0.8,0.8
499604,5.4189e+006,255.67,0.8,0.8,0.8
500106,5.41889e+006,276.63,0.8,0.8,0.8
499863,5.41918e+006,255.2,0.8,0.8,0.8
499724,5.41871e+006,280.98,0.8,0.8,0.8
499688,5.41888e+006,251.84,0.8,0.8,0.8
500131,5.41861e+006,278.06,0.8,0.8,0.8
499890,5.41897e+006,248.92,0.8,0.8,0.8
499957,5.41896e+006,246.22,0.8,0.8,0.8
499862,5.4185e+006,268.81,0.8,0.8,0.8
499895,5.41838e+006,282.45,0.8,0.8,0.8
499583,5.41881e+006,250.68,0.8,0.8,0.8
500335,5.41892e+006,254.8,0.8,0.8,0.8
499508,5.41921e+006,282.26,0.8,0.8,0.8
500442,5.41891e+006,252.9,0.8,0.8,0.8
500162,5.41834e+006,292.37,0.8,0.8,0.8
500143,5.41894e+006,266.66,0.8,0.8,0.8
499532,5.41834e+006,268.9,0.8,0.8,0.8
500043,5.41943e+006,263.8,0.8,0.8,0.8
499976,5.41883e+006,244.5,0.8,0.8,0.8
500276,5.4189e+006,256.79,0.8,0.8,0.8
500355,5.41934e+006,253.27,0.8,0.8,0.8
500125,5.41898e+006,244.14,0.8,0.8,0.8
499753,5.4188e+006,251.59,0.8,0.8,0.8
500146,5.41835e+006,290.31,0.8,0.8,0.8
499703,5.41869e+006,270.19,0.8,0.8,0.8
500359,5.41926e+006,246.93,0.8,0.8,0.8
499603,5.4185e+006,251.16,0.8,0.8,0.8
499597,5.41852e+006,249.46,0.8,0.8,0.8
499861,5.41843e+006,279.31,0.8,0.8,0.8
499752,5.4187e+006,246.28,0.8,0.8,0.8
499574,5.41938e+006,301.15,0.8,0.8,0.8
500102,5.41902e+006,243.98,0.8,0.8,0.8
500516,5.41895e+006,251.24,0.8,0.8,0.8
499562,5.41866e+006,255.08,0.8,0.8,0.8
499588,5.41899e+006,259.6,0.8,0.8,0.8
499687,5.41868e+006,263.5,0.8,0.8,0.8
499624,5.4191e+006,264.01,0.8,0.8,0.8
499494,5.41905e+006,266.12,0.8,0.8,0.8
499997,5.41891e+006,288.85,0.8,0.8,0.8
499539,5.41929e+006,289.33,0.8,0.8,0.8
499559,5.4185e+006,255.73,0.8,0.8,0.8
499502,5.41889e+006,257.5,0.8,0.8,0.8
500156,5.41933e+006,258.44,0.8,0.8,0.8
500511,5.41894e+006,251.45,0.8,0.8,0.8
500279,5.41927e+006,248.73,0.8,0.8,0.8
499511,5.41881e+006,253.32,0.8,0.8,0.8
499492,5.41835e+006,269.21,0.8,0.8,0.8
499653,5.41936e+006,285.1,0.8,0.8,0.8
500024,5.4189e+006,288.8,0.8,0.8,0.8
499916,5.41855e+006,279.8,0.8,0.8,0.8
500184,5.41941e+006,270.59,0.8,0.8,0.8
499484,5.41833e+006,269.57,0.8,0.8,0.8
499670,5.41835e+006,273.44,0.8,0.8,0.8
500315,5.41879e+006,262.78,0.8,0.8,0.8
499853,5.41932e+006,266.44,0.8,0.8,0.8
500547,5.41904e+006,269.82,0.8,0.8,0.8
500372,5.41906e+006,244.02,0.8,0.8,0.8
499587,5.41884e+006,253,0.8,0.8,0.8
499511,5.41848e+006,256.46,0.8,0.8,0.8
499753,5.41859e+006,248.12,0.8,0.8,0.8
499810,5.4188e+006,244.44,0.8,0.8,0.8
499747,5.41868e+006,247.72,0.8,0.8,0.8
500087,5.41919e+006,250.21,0.8,0.8,0.8
499708,5.41893e+006,253.8,0.8,0.8,0.8
499797,5.41922e+006,260.18,0.8,0.8,0.8
499827,5.41842e+006,279.16,0.8,0.8,0.8
499894,5.41849e+006,272.65,0.8,0.8,0.8
499725,5.41849e+006,265.19,0.8,0.8,0.8
500196,5.41881e+006,263.66,0.8,0.8,0.8
499670,5.41897e+006,256.59,0.8,0.8,0.8
500182,5.41838e+006,289.65,0.8,0.8,0.8
499824,5.4194e+006,274.87,0.8,0.8,0.8
500194,5.41834e+006,294.25,0.8,0.8,0.8
500500,5.41899e+006,247.25,0.8,0.8,0.8
500232,5.41839e+006,292.1,0.8,0.8,0.8
499882,5.41916e+006,253.85,0.8,0.8,0.8
500495,5.41898e+006,247.62,0.8,0.8,0.8
499602,5.41942e+006,302.33,0.8,0.8,0.8
499953,5.41868e+006,259.1,0.8,0.8,0.8
499473,5.41846e+006,248.24,0.8,0.8,0.8
499751,5.41834e+006,264.02,0.8,0.8,0.8
499843,5.41846e+006,276.97,0.8,0.8,0.8
499676,5.41896e+006,255.94,0.8,0.8,0.8
499766,5.41879e+006,252.77,0.8,0.8,0.8
500386,5.41932e+006,251.57,0.8,0.8,0.8
500487,5.419e+006,245.45,0.8,0.8,0.8
499530,5.41857e+006,245.9,0.8,0.8,0.8
500191,5.41907e+006,244.94,0.8,0.8,0.8
499463,5.41858e+006,245.5,0.8,0.8,0.8
499608,5.41867e+006,257.14,0.8,0.8,0.8
499958,5.4193e+006,262.43,0.8,0.8,0.8
499940,5.41899e+006,248.31,0.8,0.8,0.8
499943,5.41902e+006,249.54,0.8,0.8,0.8
499853,5.41912e+006,254.01,0.8,0.8,0.8
499533,5.41897e+006,260.32,0.8,0.8,0.8
499828,5.41931e+006,265.69,0.8,0.8,0.8
500348,5.41894e+006,248.2,0.8,0.8,0.8
499516,5.41898e+006,261.21,0.8,0.8,0.8
500001,5.41917e+006,250.83,0.8,0.8,0.8
499937,5.41876e+006,250.24,0.8,0.8,0.8
500508,5.41907e+006,243.77,0.8,0.8,0.8
499822,5.41933e+006,267.28,0.8,0.8,0.8
500233,5.41924e+006,248.47,0.8,0.8,0.8
499983,5.41932e+006,263.84,0.8,0.8,0.8
499580,5.41837e+006,265.99,0.8,0.8,0.8
499791,5.41843e+006,277.52,0.8,0.8,0.8
500123,5.41913e+006,247.87,0.8,0.8,0.8
500418,5.41892e+006,254.16,0.8,0.8,0.8
500524,5.4191e+006,243.92,0.8,0.8,0.8
499940,5.41937e+006,268.81,0.8,0.8,0.8
500347,5.41905e+006,244.09,0.8,0.8,0.8
500438,5.41928e+006,246.81,0.8,0.8,0.8
500198,5.41859e+006,277.95,0.8,0.8,0.8
499777,5.4193e+006,266.05,0.8,0.8,0.8
499559,5.41888e+006,255.81,0.8,0.8,0.8
500030,5.41929e+006,275.62,0.8,0.8,0.8
500419,5.41898e+006,245.54,0.8,0.8,0.8
499974,5.41856e+006,272.66,0.8,0.8,0.8
499740,5.41845e+006,264.07,0.8,0.8,0.8
500236,5.4192e+006,247.33,0.8,0.8,0.8
500146,5.41937e+006,268.61,0.8,0.8,0.8
500103,5.41939e+006,267.05,0.8,0.8,0.8
499952,5.41895e+006,288.89,0.8,0.8,0.8
500054,5.41888e+006,244.4,0.8,0.8,0.8
499710,5.41878e+006,250.9,0.8,0.8,0.8
499819,5.41942e+006,276.96,0.8,0.8,0.8
499474,5.41939e+006,307.57,0.8,0.8,0.8
499758,5.41847e+006,263.34,0.8,0.8,0.8
500132,5.41862e+006,277.98,0.8,0.8,0.8
500206,5.41929e+006,251.05,0.8,0.8,0.8
499946,5.41843e+006,280.34,0.8,0.8,0.8
499505,5.41866e+006,255.2,0.8,0.8,0.8
500091,5.41863e+006,275.32,0.8,0.8,0.8
499976,5.41844e+006,279.19,0.8,0.8,0.8
500048,5.41877e+006,259.96,0.8,0.8,0.8
499897,5.41902e+006,250.58,0.8,0.8,0.8
500001,5.41868e+006,259.59,0.8,0.8,0.8
500175,5.41846e+006,284.85,0.8,0.8,0.8
500109,5.4185e+006,280.95,0.8,0.8,0.8
500098,5.41912e+006,247.27,0.8,0.8,0.8
500144,5.41858e+006,278.75,0.8,0.8,0.8
500292,5.41908e+006,251.2,0.8,0.8,0.8
499489,5.4192e+006,284.18,0.8,0.8,0.8
499835,5.41858e+006,251.15,0.8,0.8,0.8
499497,5.41938e+006,303.14,0.8,0.8,0.8
499518,5.41854e+006,246.31,0.8,0.8,0.8
500068,5.41933e+006,258.48,0.8,0.8,0.8
499450,5.41914e+006,277.68,0.8,0.8,0.8
500481,5.41892e+006,251.62,0.8,0.8,0.8
499835,5.41847e+006,278.96,0.8,0.8,0.8
500214,5.41894e+006,272.68,0.8,0.8,0.8
499505,5.41835e+006,269.1,0.8,0.8,0.8
499737,5.4187e+006,264.26,0.8,0.8,0.8
499602,5.41845e+006,254.58,0.8,0.8,0.8
499633,5.41903e+006,260.22,0.8,0.8,0.8
499680,5.41908e+006,260.96,0.8,0.8,0.8
500400,5.41915e+006,243.7,0.8,0.8,0.8
500234,5.41933e+006,253.22,0.8,0.8,0.8
500110,5.41889e+006,258.16,0.8,0.8,0.8
499816,5.41885e+006,245.67,0.8,0.8,0.8
499467,5.41888e+006,259.04,0.8,0.8,0.8
499486,5.4187e+006,243.13,0.8,0.8,0.8
500060,5.41835e+006,286.39,0.8,0.8,0.8
499809,5.41839e+006,280.73,0.8,0.8,0.8
500009,5.41846e+006,280.33,0.8,0.8,0.8
499622,5.41836e+006,259.39,0.8,0.8,0.8
499900,5.41882e+006,244.78,0.8,0.8,0.8
499578,5.41916e+006,270.16,0.8,0.8,0.8
499734,5.41858e+006,246.72,0.8,0.8,0.8
500162,5.41852e+006,281.07,0.8,0.8,0.8
500198,5.41845e+006,286.96,0.8,0.8,0.8
499731,5.41893e+006,252.91,0.8,0.8,0.8
500400,5.41908e+006,243.97,0.8,0.8,0.8
500377,5.41941e+006,263.52,0.8,0.8,0.8
499620,5.41881e+006,250.47,0.8,0.8,0.8
500268,5.41913e+006,245.03,0.8,0.8,0.8
500023,5.41916e+006,250,0.8,0.8,0.8
500429,5.41943e+006,278.22,0.8,0.8,0.8
499619,5.41836e+006,259.16,0.8,0.8,0.8
499863,5.41856e+006,266.03,0.8,0.8,0.8
499617,5.41854e+006,251.19,0.8,0.8,0.8
500154,5.41886e+006,264.36,0.8,0.8,0.8
500321,5.4193e+006,249.8,0.8,0.8,0.8
500022,5.41859e+006,274.6,0.8,0.8,0.8
500240,5.41892e+006,256.85,0.8,0.8,0.8
499637,5.41918e+006,268.08,0.8,0.8,0.8
499612,5.41934e+006,289.2,0.8,0.8,0.8
499761,5.4186e+006,247.86,0.8,0.8,0.8
499698,5.41848e+006,263.64,0.8,0.8,0.8
500026,5.41922e+006,252.27,0.8,0.8,0.8
500030,5.41889e+006,244.45,0.8,0.8,0.8
499829,5.41916e+006,256.02,0.8,0.8,0.8
499742,5.41845e+006,263.83,0.8,0.8,0.8
499911,5.41941e+006,272.23,0.8,0.8,0.8
499496,5.41865e+006,257.37,0.8,0.8,0.8
500064,5.41867e+006,272.32,0.8,0.8,0.8
500352,5.41938e+006,267.68,0.8,0.8,0.8
499737,5.41904e+006,256.72,0.8,0.8,0.8
499524,5.41859e+006,245.67,0.8,0.8,0.8
500179,5.41934e+006,262.38,0.8,0.8,0.8
499800,5.41939e+006,274.02,0.8,0.8,0.8
499995,5.41927e+006,258.02,0.8,0.8,0.8
500351,5.41908e+006,244.06,0.8,0.8,0.8
499756,5.41934e+006,269.71,0.8,0.8,0.8
499809,5.419e+006,252.53,0.8,0.8,0.8
500039,5.41895e+006,243.86,0.8,0.8,0.8
500317,5.41904e+006,244.18,0.8,0.8,0.8
500308,5.41916e+006,245.02,0.8,0.8,0.8
499709,5.41929e+006,269.89,0.8,0.8,0.8
499534,5.419e+006,261.38,0.8,0.8,0.8
499558,5.41842e+006,254.52,0.8,0.8,0.8
499734,5.41842e+006,263.57,0.8,0.8,0.8
499798,5.41893e+006,250.61,0.8,0.8,0.8
499801,5.41923e+006,260.54,0.8,0.8,0.8
500210,5.41881e+006,263.12,0.8,0.8,0.8
500140,5.41908e+006,245.69,0.8,0.8,0.8
499471,5.41893e+006,260.47,0.8,0.8,0.8
500067,5.41901e+006,244.56,0.8,0.8,0.8
499661,5.41899e+006,257.56,0.8,0.8,0.8
499804,5.41842e+006,278.81,0.8,0.8,0.8
499839,5.41856e+006,264.3,0.8,0.8,0.8
499649,5.41839e+006,260.59,0.8,0.8,0.8
500117,5.41848e+006,281.83,0.8,0.8,0.8
499647,5.41836e+006,272.57,0.8,0.8,0.8
499573,5.41936e+006,302.34,0.8,0.8,0.8
499538,5.41909e+006,266.65,0.8,0.8,0.8
500326,5.41892e+006,248.48,0.8,0.8,0.8
500264,5.4189e+006,259.35,0.8,0.8,0.8
499493,5.41845e+006,252.15,0.8,0.8,0.8
500173,5.41902e+006,243.73,0.8,0.8,0.8
499806,5.41888e+006,248.21,0.8,0.8,0.8
499598,5.41895e+006,257.96,0.8,0.8,0.8
499503,5.41934e+006,289.37,0.8,0.8,0.8
499746,5.41838e+006,263.71,0.8,0.8,0.8
500155,5.41938e+006,268.46,0.8,0.8,0.8
500155,5.41931e+006,254.47,0.8,0.8,0.8
499480,5.41866e+006,268.48,0.8,0.8,0.8
499582,5.4189e+006,256.09,0.8,0.8,0.8
500285,5.41879e+006,263.07,0.8,0.8,0.8
499467,5.41916e+006,290.14,0.8,0.8,0.8
500358,5.4188e+006,260.97,0.8,0.8,0.8
499644,5.4184e+006,259.72,0.8,0.8,0.8
500086,5.41932e+006,263.95,0.8,0.8,0.8
499938,5.41843e+006,280.75,0.8,0.8,0.8
499492,5.41918e+006,281.94,0.8,0.8,0.8
499984,5.41894e+006,244.49,0.8,0.8,0.8
500147,5.41841e+006,285.46,0.8,0.8,0.8
500192,5.41892e+006,250.6,0.8,0.8,0.8
499890,5.41849e+006,272.57,0.8,0.8,0.8
499925,5.4192e+006,254.61,0.8,0.8,0.8
500020,5.41931e+006,279.77,0.8,0.8,0.8
500217,5.41909e+006,245.17,0.8,0.8,0.8
499677,5.41869e+006,244.54,0.8,0.8,0.8
499519,5.41844e+006,251.36,0.8,0.8,0.8
499935,5.41917e+006,253.15,0.8,0.8,0.8
500218,5.41834e+006,297.7,0.8,0.8,0.8
499470,5.41864e+006,252.53,0.8,0.8,0.8
500367,5.41915e+006,255.74,0.8,0.8,0.8
499855,5.41865e+006,246.89,0.8,0.8,0.8
499697,5.41856e+006,255.72,0.8,0.8,0.8
499555,5.4186e+006,252.71,0.8,0.8,0.8
499698,5.41894e+006,254.57,0.8,0.8,0.8
499695,5.41899e+006,256.85,0.8,0.8,0.8
499831,5.41898e+006,256.67,0.8,0.8,0.8
499783,5.41864e+006,262.14,0.8,0.8,0.8
500380,5.41885e+006,256.83,0.8,0.8,0.8
499659,5.41902e+006,259.26,0.8,0.8,0.8
499962,5.41916e+006,251.62,0.8,0.8,0.8
499896,5.41916e+006,253.56,0.8,0.8,0.8
500023,5.41876e+006,259.04,0.8,0.8,0.8
499492,5.41852e+006,250.57,0.8,0.8,0.8
499939,5.41901e+006,248.99,0.8,0.8,0.8
499999,5.41838e+006,283.9,0.8,0.8,0.8
499541,5.41839e+006,264.32,0.8,0.8,0.8
500069,5.41839e+006,285.98,0.8,0.8,0.8
499525,5.41871e+006,256.28,0.8,0.8,0.8
499855,5.41852e+006,271.34,0.8,0.8,0.8
499763,5.41932e+006,268.21,0.8,0.8,0.8
499588,5.41905e+006,262.35,0.8,0.8,0.8
499861,5.41895e+006,249.28,0.8,0.8,0.8
499861,5.4193e+006,264.29,0.8,0.8,0.8
500047,5.41921e+006,251.38,0.8,0.8,0.8
500469,5.41893e+006,251.28,0.8,0.8,0.8
500146,5.41898e+006,243.91,0.8,0.8,0.8
500172,5.41887e+006,259.43,0.8,0.8,0.8
499839,5.41933e+006,268.1,0.8,0.8,0.8
499725,5.41904e+006,257.36,0.8,0.8,0.8
499548,5.41868e+006,250.8,0.8,0.8,0.8
499451,5.41895e+006,267.79,0.8,0.8,0.8
499891,5.41863e+006,253.1,0.8,0.8,0.8
500277,5.41905e+006,244.21,0.8,0.8,0.8
499576,5.41921e+006,280.53,0.8,0.8,0.8
499875,5.41898e+006,250.86,0.8,0.8,0.8
499837,5.41908e+006,254.75,0.8,0.8,0.8
500207,5.41853e+006,281.41,0.8,0.8,0.8
499779,5.4187e+006,245.08,0.8,0.8,0.8
500197,5.41895e+006,242.54,0.8,0.8,0.8
500070,5.41943e+006,263.67,0.8,0.8,0.8
499616,5.41908e+006,263.53,0.8,0.8,0.8
499913,5.41857e+006,275.08,0.8,0.8,0.8
500225,5.41895e+006,260.67,0.8,0.8,0.8
500103,5.41917e+006,249.28,0.8,0.8,0.8
499865,5.41867e+006,245.35,0.8,0.8,0.8
500450,5.419e+006,245.38,0.8,0.8,0.8
500089,5.41899e+006,243.78,0.8,0.8,0.8
499699,5.41912e+006,261.82,0.8,0.8,0.8
