x,y,z,r,g,b
497277.562500,5421204.000000,296.079987,0.8,0.8,0.8
497108.875000,5421779.000000,288.600006,0.8,0.8,0.8
496854.843750,5421537.500000,284.829987,0.8,0.8,0.8
496632.218750,5421594.500000,892.640015,0.8,0.8,0.8
496732.687500,5420754.500000,319.119995,0.8,0.8,0.8
496714.281250,5421039.000000,914.030029,0.8,0.8,0.8
497586.093750,5421698.500000,308.109985,0.8,0.8,0.8
496901.468750,5420864.000000,306.839996,0.8,0.8,0.8
496486.031250,5421496.000000,289.779999,0.8,0.8,0.8
497299.906250,5421689.500000,302.070007,0.8,0.8,0.8
496723.968750,5421248.000000,288.269989,0.8,0.8,0.8
496526.625000,5420888.000000,303.709991,0.8,0.8,0.8
497839.250000,5420887.000000,329.720001,0.8,0.8,0.8
497065.500000,5420769.500000,312.140015,0.8,0.8,0.8
497433.375000,5421578.500000,308.709991,0.8,0.8,0.8
497273.000000,5421104.000000,301.329987,0.8,0.8,0.8
497587.625000,5421727.500000,306.609985,0.8,0.8,0.8
496765.875000,5421657.500000,286.850006,0.8,0.8,0.8
496483.375000,5421066.500000,889.049988,0.8,0.8,0.8
496666.312500,5421796.500000,295.410004,0.8,0.8,0.8
496486.562500,5420854.000000,310.989990,0.8,0.8,0.8
497614.375000,5421499.000000,307.769989,0.8,0.8,0.8
497660.250000,5420957.000000,325.070007,0.8,0.8,0.8
497943.125000,5421117.000000,327.149994,0.8,0.8,0.8
496686.468750,5421087.500000,300.359985,0.8,0.8,0.8
497274.093750,5421267.500000,291.209991,0.8,0.8,0.8
497843.593750,5420898.000000,330.160004,0.8,0.8,0.8
496575.781250,5421255.000000,293.950012,0.8,0.8,0.8
496699.843750,5420937.500000,304.619995,0.8,0.8,0.8
496649.781250,5421284.500000,286.940002,0.8,0.8,0.8
497270.781250,5421256.000000,295.170013,0.8,0.8,0.8
497579.000000,5421373.500000,295.920013,0.8,0.8,0.8
497872.812500,5420882.500000,330.440002,0.8,0.8,0.8
496572.187500,5421271.000000,289.959991,0.8,0.8,0.8
496709.468750,5421656.000000,288.309998,0.8,0.8,0.8
496672.093750,5421588.000000,277.709991,0.8,0.8,0.8
497217.906250,5421391.000000,296.779999,0.8,0.8,0.8
497549.375000,5421057.000000,339.230011,0.8,0.8,0.8
497306.062500,5420968.500000,310.329987,0.8,0.8,0.8
496759.437500,5421097.000000,904.669983,0.8,0.8,0.8
496909.156250,5421140.000000,305.880005,0.8,0.8,0.8
497934.343750,5421739.000000,310.720001,0.8,0.8,0.8
496481.062500,5421787.500000,297.989990,0.8,0.8,0.8
497523.406250,5421247.000000,302.149994,0.8,0.8,0.8
496733.937500,5421038.000000,303.980011,0.8,0.8,0.8
497445.656250,5420926.500000,314.839996,0.8,0.8,0.8
497279.031250,5421615.500000,309.589996,0.8,0.8,0.8
496672.500000,5421738.500000,291.619995,0.8,0.8,0.8
497469.406250,5421516.500000,308.589996,0.8,0.8,0.8
496437.218750,5421406.500000,282.480011,0.8,0.8,0.8
497267.531250,5421575.000000,305.730011,0.8,0.8,0.8
496706.625000,5421070.500000,301.230011,0.8,0.8,0.8
497761.687500,5421427.000000,300.089996,0.8,0.8,0.8
497271.906250,5421047.500000,303.250000,0.8,0.8,0.8
497309.875000,5421391.500000,296.299988,0.8,0.8,0.8
497626.343750,5421041.000000,351.089996,0.8,0.8,0.8
496773.531250,5421760.000000,296.619995,0.8,0.8,0.8
496843.468750,5421371.000000,287.440002,0.8,0.8,0.8
496429.000000,5420911.000000,303.140015,0.8,0.8,0.8
497796.906250,5421100.000000,325.140015,0.8,0.8,0.8
496775.687500,5420865.000000,313.429993,0.8,0.8,0.8
497033.718750,5420885.500000,316.070007,0.8,0.8,0.8
496632.937500,5421076.500000,898.640015,0.8,0.8,0.8
497599.656250,5421480.500000,306.649994,0.8,0.8,0.8
497358.781250,5421576.500000,307.549988,0.8,0.8,0.8
497297.156250,5421539.000000,306.660004,0.8,0.8,0.8
496953.312500,5421528.000000,293.829987,0.8,0.8,0.8
497079.781250,5420905.000000,308.200012,0.8,0.8,0.8
496875.531250,5421777.000000,296.940002,0.8,0.8,0.8
497866.812500,5420752.500000,333.769989,0.8,0.8,0.8
496899.531250,5421103.500000,298.459991,0.8,0.8,0.8
497413.343750,5421614.500000,308.470001,0.8,0.8,0.8
497178.156250,5421408.500000,297.359985,0.8,0.8,0.8
497313.687500,5421782.000000,296.609985,0.8,0.8,0.8
497671.343750,5421212.500000,317.579987,0.8,0.8,0.8
497101.968750,5420890.500000,304.709991,0.8,0.8,0.8
497728.781250,5421280.500000,310.089996,0.8,0.8,0.8
497756.718750,5421539.500000,310.160004,0.8,0.8,0.8
497810.687500,5421067.500000,327.380005,0.8,0.8,0.8
497838.500000,5421679.500000,311.510010,0.8,0.8,0.8
496475.218750,5421173.500000,290.470001,0.8,0.8,0.8
496375.593750,5421196.500000,301.619995,0.8,0.8,0.8
497434.875000,5421092.000000,313.269989,0.8,0.8,0.8
497786.656250,5420896.500000,329.130005,0.8,0.8,0.8
497117.531250,5421157.000000,292.079987,0.8,0.8,0.8
496719.531250,5421589.500000,281.200012,0.8,0.8,0.8
497461.125000,5421134.500000,309.920013,0.8,0.8,0.8
497949.375000,5421643.500000,311.079987,0.8,0.8,0.8
497921.218750,5421469.500000,301.850006,0.8,0.8,0.8
496350.750000,5421474.500000,291.040009,0.8,0.8,0.8
496564.781250,5421214.000000,290.279999,0.8,0.8,0.8
497420.531250,5421221.500000,296.399994,0.8,0.8,0.8
496744.781250,5421127.500000,299.029999,0.8,0.8,0.8
497141.375000,5421560.000000,301.869995,0.8,0.8,0.8
497101.656250,5421013.000000,300.059998,0.8,0.8,0.8
496908.750000,5420871.500000,306.320007,0.8,0.8,0.8
496916.187500,5420836.500000,308.910004,0.8,0.8,0.8
497389.062500,5421620.000000,307.970001,0.8,0.8,0.8
497080.218750,5421075.500000,299.950012,0.8,0.8,0.8
497835.406250,5421522.500000,306.720001,0.8,0.8,0.8
496459.218750,5421539.000000,292.890015,0.8,0.8,0.8
496600.875000,5421074.000000,300.059998,0.8,0.8,0.8
496467.531250,5420911.000000,310.940002,0.8,0.8,0.8
497255.281250,5421667.500000,302.290009,0.8,0.8,0.8
496553.218750,5421045.000000,301.679993,0.8,0.8,0.8
497035.156250,5421647.500000,297.320007,0.8,0.8,0.8
497874.093750,5421672.500000,311.670013,0.8,0.8,0.8
497424.812500,5420982.000000,314.720001,0.8,0.8,0.8
497616.218750,5421711.000000,307.600006,0.8,0.8,0.8
497719.062500,5421721.500000,318.880005,0.8,0.8,0.8
496468.218750,5421267.000000,271.500000,0.8,0.8,0.8
496554.718750,5421270.000000,283.100006,0.8,0.8,0.8
496930.562500,5421113.000000,300.079987,0.8,0.8,0.8
497420.312500,5421277.500000,310.760010,0.8,0.8,0.8
497168.031250,5420926.000000,303.200012,0.8,0.8,0.8
496823.406250,5421079.000000,300.459991,0.8,0.8,0.8
497208.562500,5421463.000000,302.130005,0.8,0.8,0.8
496761.031250,5421367.000000,284.140015,0.8,0.8,0.8
497155.562500,5421037.000000,298.130005,0.8,0.8,0.8
497162.031250,5421570.000000,302.670013,0.8,0.8,0.8
497515.281250,5421476.000000,306.720001,0.8,0.8,0.8
497119.625000,5421525.000000,297.070007,0.8,0.8,0.8
497149.437500,5421383.500000,289.600006,0.8,0.8,0.8
497440.375000,5421114.000000,348.029999,0.8,0.8,0.8
496865.281250,5421795.500000,292.380005,0.8,0.8,0.8
496420.281250,5421543.500000,294.100006,0.8,0.8,0.8
496804.437500,5421720.500000,292.829987,0.8,0.8,0.8
496814.593750,5421376.000000,307.339996,0.8,0.8,0.8
496794.687500,5421287.500000,284.829987,0.8,0.8,0.8
496811.218750,5421489.500000,302.589996,0.8,0.8,0.8
497598.687500,5421650.500000,310.170013,0.8,0.8,0.8
497069.281250,5421227.000000,288.100006,0.8,0.8,0.8
497017.187500,5421378.500000,287.500000,0.8,0.8,0.8
497269.375000,5421108.000000,300.910004,0.8,0.8,0.8
497678.968750,5421093.000000,323.209991,0.8,0.8,0.8
497394.250000,5420875.500000,312.040009,0.8,0.8,0.8
497792.625000,5421522.000000,308.429993,0.8,0.8,0.8
497034.593750,5421544.000000,297.790009,0.8,0.8,0.8
497139.343750,5421756.500000,301.329987,0.8,0.8,0.8
497765.250000,5421582.500000,311.779999,0.8,0.8,0.8
497071.093750,5421035.500000,305.630005,0.8,0.8,0.8
496928.531250,5421087.000000,301.540009,0.8,0.8,0.8
496690.218750,5421228.500000,288.989990,0.8,0.8,0.8
497030.062500,5421071.500000,297.140015,0.8,0.8,0.8
497646.531250,5421742.000000,306.890015,0.8,0.8,0.8
496919.843750,5421128.000000,298.790009,0.8,0.8,0.8
496659.343750,5420957.500000,315.540009,0.8,0.8,0.8
497296.406250,5421635.000000,304.049988,0.8,0.8,0.8
496515.562500,5420866.000000,303.760010,0.8,0.8,0.8
497014.875000,5421641.000000,301.100006,0.8,0.8,0.8
497651.656250,5420870.000000,329.640015,0.8,0.8,0.8
496369.250000,5421657.500000,299.739990,0.8,0.8,0.8
496724.906250,5421518.000000,277.640015,0.8,0.8,0.8
496608.250000,5421067.500000,303.529999,0.8,0.8,0.8
496618.156250,5420959.500000,303.609985,0.8,0.8,0.8
497243.656250,5421699.500000,300.089996,0.8,0.8,0.8
497948.468750,5421185.500000,322.190002,0.8,0.8,0.8
496730.500000,5421037.000000,314.869995,0.8,0.8,0.8
497364.718750,5421564.500000,307.739990,0.8,0.8,0.8
497025.375000,5420870.500000,313.079987,0.8,0.8,0.8
497852.031250,5421537.000000,307.540009,0.8,0.8,0.8
497452.968750,5420976.000000,316.369995,0.8,0.8,0.8
496916.062500,5421436.000000,288.910004,0.8,0.8,0.8
496542.031250,5421722.500000,290.179993,0.8,0.8,0.8
496986.718750,5421011.000000,310.970001,0.8,0.8,0.8
497612.625000,5420921.000000,323.320007,0.8,0.8,0.8
496452.375000,5421013.500000,300.970001,0.8,0.8,0.8
497232.468750,5420919.000000,312.899994,0.8,0.8,0.8
497733.031250,5421215.000000,311.899994,0.8,0.8,0.8
496768.312500,5421055.500000,907.109985,0.8,0.8,0.8
497363.000000,5420925.500000,309.640015,0.8,0.8,0.8
496554.312500,5421734.000000,288.799988,0.8,0.8,0.8
496776.375000,5421114.500000,299.570007,0.8,0.8,0.8
496801.468750,5420769.500000,312.070007,0.8,0.8,0.8
497633.156250,5421031.000000,323.130005,0.8,0.8,0.8
497015.468750,5421122.000000,295.660004,0.8,0.8,0.8
497485.468750,5421084.000000,316.290009,0.8,0.8,0.8
497254.156250,5420782.500000,319.059998,0.8,0.8,0.8
497943.500000,5421466.000000,303.350006,0.8,0.8,0.8
496679.000000,5420920.000000,319.890015,0.8,0.8,0.8
496894.687500,5421544.500000,293.119995,0.8,0.8,0.8
497266.343750,5420864.000000,310.190002,0.8,0.8,0.8
497573.625000,5421620.500000,310.609985,0.8,0.8,0.8
497438.312500,5421104.500000,312.299988,0.8,0.8,0.8
497174.937500,5420995.000000,297.820007,0.8,0.8,0.8
496983.781250,5420845.500000,308.279999,0.8,0.8,0.8
497801.375000,5421644.500000,311.859985,0.8,0.8,0.8
497477.312500,5421443.000000,304.880005,0.8,0.8,0.8
497910.218750,5420863.500000,331.000000,0.8,0.8,0.8
497468.375000,5421408.000000,300.269989,0.8,0.8,0.8
497803.562500,5421761.500000,308.809998,0.8,0.8,0.8
496582.718750,5421262.500000,287.980011,0.8,0.8,0.8
497085.593750,5421631.500000,851.020020,0.8,0.8,0.8
496823.125000,5421621.000000,281.630005,0.8,0.8,0.8
496874.812500,5420926.000000,308.489990,0.8,0.8,0.8
497619.250000,5421079.500000,322.119995,0.8,0.8,0.8
496376.000000,5421248.000000,269.660004,0.8,0.8,0.8
497445.062500,5421523.000000,308.450012,0.8,0.8,0.8
496709.625000,5421458.500000,290.690002,0.8,0.8,0.8
496407.312500,5421783.000000,302.549988,0.8,0.8,0.8
497493.125000,5421132.500000,303.200012,0.8,0.8,0.8
497473.687500,5421423.000000,302.459991,0.8,0.8,0.8
497637.375000,5421250.000000,305.970001,0.8,0.8,0.8
496765.156250,5420869.500000,310.690002,0.8,0.8,0.8
497885.156250,5421204.000000,319.519989,0.8,0.8,0.8
497568.187500,5421231.500000,307.209991,0.8,0.8,0.8
497292.468750,5421421.000000,297.529999,0.8,0.8,0.8
497305.156250,5421432.000000,310.339996,0.8,0.8,0.8
497297.031250,5421760.000000,297.549988,0.8,0.8,0.8
497522.218750,5421543.500000,309.859985,0.8,0.8,0.8
496688.687500,5421594.000000,279.029999,0.8,0.8,0.8
496450.593750,5421232.000000,281.019989,0.8,0.8,0.8
496489.000000,5420995.000000,312.649994,0.8,0.8,0.8
496514.187500,5421232.000000,291.750000,0.8,0.8,0.8
496656.843750,5421126.500000,297.910004,0.8,0.8,0.8
497837.687500,5421214.500000,318.000000,0.8,0.8,0.8
496662.562500,5421716.500000,289.950012,0.8,0.8,0.8
497229.093750,5421644.000000,308.850006,0.8,0.8,0.8
497838.218750,5421740.000000,310.089996,0.8,0.8,0.8
497894.875000,5421443.000000,300.579987,0.8,0.8,0.8
497393.843750,5421291.500000,307.929993,0.8,0.8,0.8
496725.187500,5421484.000000,296.369995,0.8,0.8,0.8
496445.906250,5421270.500000,273.529999,0.8,0.8,0.8
497666.781250,5420988.500000,325.010010,0.8,0.8,0.8
497189.625000,5420927.500000,302.510010,0.8,0.8,0.8
496446.875000,5421705.500000,296.399994,0.8,0.8,0.8
497021.812500,5420916.500000,304.320007,0.8,0.8,0.8
497724.937500,5420998.000000,327.040009,0.8,0.8,0.8
496700.187500,5421469.000000,295.549988,0.8,0.8,0.8
496492.156250,5421458.000000,285.630005,0.8,0.8,0.8
497748.375000,5421725.500000,312.510010,0.8,0.8,0.8
496760.625000,5420997.500000,304.239990,0.8,0.8,0.8
497572.437500,5421481.000000,306.670013,0.8,0.8,0.8
497759.187500,5421622.000000,311.839996,0.8,0.8,0.8
497538.625000,5421717.500000,306.200012,0.8,0.8,0.8
496856.406250,5421650.500000,296.010010,0.8,0.8,0.8
496853.312500,5421452.500000,306.640015,0.8,0.8,0.8
496608.843750,5420768.000000,315.369995,0.8,0.8,0.8
497358.187500,5421793.000000,296.899994,0.8,0.8,0.8
497045.812500,5421791.000000,281.839996,0.8,0.8,0.8
496823.343750,5421452.000000,290.980011,0.8,0.8,0.8
497692.937500,5421673.000000,310.570007,0.8,0.8,0.8
497623.937500,5420879.500000,321.880005,0.8,0.8,0.8
497188.875000,5420897.500000,307.489990,0.8,0.8,0.8
497478.718750,5421277.500000,296.380005,0.8,0.8,0.8
497603.250000,5420780.000000,324.700012,0.8,0.8,0.8
496464.843750,5421352.500000,278.100006,0.8,0.8,0.8
497329.125000,5420917.000000,308.579987,0.8,0.8,0.8
496388.375000,5420752.000000,303.100006,0.8,0.8,0.8
497784.343750,5421743.500000,323.309998,0.8,0.8,0.8
497082.125000,5421510.500000,304.970001,0.8,0.8,0.8
496526.343750,5421103.500000,906.369995,0.8,0.8,0.8
497299.312500,5421480.000000,308.160004,0.8,0.8,0.8
496989.968750,5420757.000000,313.170013,0.8,0.8,0.8
497871.656250,5421215.500000,318.500000,0.8,0.8,0.8
496496.531250,5421528.500000,291.170013,0.8,0.8,0.8
497186.218750,5421748.500000,304.350006,0.8,0.8,0.8
496866.281250,5421529.000000,291.230011,0.8,0.8,0.8
496469.031250,5421073.000000,902.799988,0.8,0.8,0.8
497609.718750,5421752.000000,315.380005,0.8,0.8,0.8
497041.812500,5421210.000000,290.290009,0.8,0.8,0.8
497423.843750,5421706.500000,304.049988,0.8,0.8,0.8
497758.500000,5421529.000000,309.570007,0.8,0.8,0.8
496529.156250,5421478.500000,286.709991,0.8,0.8,0.8
497797.125000,5421795.500000,306.940002,0.8,0.8,0.8
497241.062500,5421279.000000,296.670013,0.8,0.8,0.8
496391.562500,5421482.500000,290.709991,0.8,0.8,0.8
497035.437500,5421362.000000,285.179993,0.8,0.8,0.8
496922.750000,5421638.500000,301.920013,0.8,0.8,0.8
497616.968750,5420975.500000,323.420013,0.8,0.8,0.8
496740.843750,5420846.000000,307.760010,0.8,0.8,0.8
496961.656250,5421434.000000,296.369995,0.8,0.8,0.8
496412.218750,5421797.500000,303.109985,0.8,0.8,0.8
497026.406250,5421048.500000,308.859985,0.8,0.8,0.8
497074.937500,5421575.000000,866.669983,0.8,0.8,0.8
496794.062500,5421237.500000,289.670013,0.8,0.8,0.8
497568.625000,5421516.000000,308.700012,0.8,0.8,0.8
496477.375000,5421782.500000,297.920013,0.8,0.8,0.8
496812.093750,5421391.000000,288.170013,0.8,0.8,0.8
497941.812500,5420751.000000,335.429993,0.8,0.8,0.8
497835.312500,5421668.000000,311.660004,0.8,0.8,0.8
496566.375000,5421008.500000,302.420013,0.8,0.8,0.8
497607.687500,5421525.000000,309.369995,0.8,0.8,0.8
496546.625000,5421250.000000,284.679993,0.8,0.8,0.8
497759.218750,5421584.000000,311.750000,0.8,0.8,0.8
496411.218750,5421045.000000,892.559998,0.8,0.8,0.8
496977.625000,5420905.000000,304.519989,0.8,0.8,0.8
497368.875000,5420952.500000,310.890015,0.8,0.8,0.8
496941.218750,5421093.000000,301.299988,0.8,0.8,0.8
496659.093750,5421409.500000,272.660004,0.8,0.8,0.8
496550.375000,5421272.000000,284.829987,0.8,0.8,0.8
496463.156250,5421749.500000,297.100006,0.8,0.8,0.8
497012.375000,5421761.500000,281.899994,0.8,0.8,0.8
497256.718750,5421138.000000,298.609985,0.8,0.8,0.8
497873.312500,5421152.500000,323.459991,0.8,0.8,0.8
497405.625000,5421124.500000,309.000000,0.8,0.8,0.8
496823.062500,5421663.000000,324.320007,0.8,0.8,0.8
496568.375000,5421193.000000,292.149994,0.8,0.8,0.8
496389.062500,5421293.500000,274.130005,0.8,0.8,0.8
497222.250000,5421402.000000,296.950012,0.8,0.8,0.8
497931.156250,5421753.500000,310.549988,0.8,0.8,0.8
496684.500000,5421692.500000,323.579987,0.8,0.8,0.8
496907.156250,5421512.500000,293.320007,0.8,0.8,0.8
496754.750000,5420879.500000,306.250000,0.8,0.8,0.8
497723.250000,5421204.000000,311.730011,0.8,0.8,0.8
497418.562500,5421201.000000,302.470001,0.8,0.8,0.8
496501.781250,5421718.000000,292.309998,0.8,0.8,0.8
497613.625000,5421739.000000,306.109985,0.8,0.8,0.8
496433.062500,5421247.500000,292.739990,0.8,0.8,0.8
497406.562500,5421005.500000,313.959991,0.8,0.8,0.8
497325.187500,5420936.000000,313.989990,0.8,0.8,0.8
496886.875000,5421761.000000,299.649994,0.8,0.8,0.8
496374.500000,5420880.500000,307.059998,0.8,0.8,0.8
496687.406250,5421451.500000,292.679993,0.8,0.8,0.8
496943.750000,5421426.500000,291.019989,0.8,0.8,0.8
496790.187500,5421506.500000,294.859985,0.8,0.8,0.8
496983.156250,5421441.000000,291.779999,0.8,0.8,0.8
496464.625000,5421523.000000,291.880005,0.8,0.8,0.8
496393.500000,5421388.500000,282.399994,0.8,0.8,0.8
497241.718750,5421193.500000,295.100006,0.8,0.8,0.8
496844.968750,5421692.500000,296.619995,0.8,0.8,0.8
496784.000000,5421463.500000,305.649994,0.8,0.8,0.8
497689.781250,5420750.000000,328.809998,0.8,0.8,0.8
496664.437500,5421212.500000,290.570007,0.8,0.8,0.8
496771.343750,5420944.500000,311.500000,0.8,0.8,0.8
497500.875000,5421412.000000,301.269989,0.8,0.8,0.8
496426.437500,5421738.000000,299.459991,0.8,0.8,0.8
496466.625000,5421032.000000,301.559998,0.8,0.8,0.8
497432.843750,5421108.500000,334.160004,0.8,0.8,0.8
497365.656250,5421417.500000,300.820007,0.8,0.8,0.8
496887.250000,5421281.500000,284.959991,0.8,0.8,0.8
497149.187500,5420957.500000,306.510010,0.8,0.8,0.8
496467.531250,5421099.500000,898.820007,0.8,0.8,0.8
497156.156250,5421622.500000,312.660004,0.8,0.8,0.8
497513.000000,5421665.000000,308.239990,0.8,0.8,0.8
497546.781250,5421131.000000,306.769989,0.8,0.8,0.8
497456.343750,5421766.000000,300.570007,0.8,0.8,0.8
497121.562500,5421608.500000,301.179993,0.8,0.8,0.8
496817.250000,5421421.500000,285.480011,0.8,0.8,0.8
496584.062500,5421677.000000,286.010010,0.8,0.8,0.8
496907.281250,5421762.000000,291.239990,0.8,0.8,0.8
496417.812500,5421063.000000,875.520020,0.8,0.8,0.8
497132.687500,5421586.500000,301.579987,0.8,0.8,0.8
496385.500000,5420887.500000,312.279999,0.8,0.8,0.8
496765.000000,5421583.000000,280.690002,0.8,0.8,0.8
497529.968750,5421712.500000,306.190002,0.8,0.8,0.8
497322.562500,5421382.000000,295.470001,0.8,0.8,0.8
497778.125000,5421012.000000,328.200012,0.8,0.8,0.8
496507.343750,5420980.500000,303.369995,0.8,0.8,0.8
497889.437500,5421218.000000,318.589996,0.8,0.8,0.8
497118.156250,5421734.000000,292.559998,0.8,0.8,0.8
496701.187500,5421102.000000,299.700012,0.8,0.8,0.8
497256.812500,5421715.000000,306.989990,0.8,0.8,0.8
497512.187500,5420930.000000,318.690002,0.8,0.8,0.8
497605.093750,5421506.000000,308.190002,0.8,0.8,0.8
497371.031250,5421251.500000,294.589996,0.8,0.8,0.8
497322.218750,5420883.000000,311.450012,0.8,0.8,0.8
497152.093750,5421623.500000,315.380005,0.8,0.8,0.8
496588.593750,5420988.500000,308.790009,0.8,0.8,0.8
496394.531250,5421096.000000,879.299988,0.8,0.8,0.8
497246.562500,5420764.500000,313.679993,0.8,0.8,0.8
497201.281250,5421639.000000,305.450012,0.8,0.8,0.8
496828.218750,5421467.000000,285.339996,0.8,0.8,0.8
497433.437500,5421381.500000,296.070007,0.8,0.8,0.8
496762.187500,5421052.500000,302.329987,0.8,0.8,0.8
496665.156250,5421673.500000,283.739990,0.8,0.8,0.8
496447.906250,5421135.500000,293.500000,0.8,0.8,0.8
496867.312500,5421281.000000,284.720001,0.8,0.8,0.8
497112.343750,5421046.500000,297.070007,0.8,0.8,0.8
497154.625000,5421503.000000,305.299988,0.8,0.8,0.8
497776.625000,5421169.000000,319.890015,0.8,0.8,0.8
496519.812500,5421081.500000,896.419983,0.8,0.8,0.8
496373.187500,5421191.000000,298.989990,0.8,0.8,0.8
496923.812500,5421576.500000,316.660004,0.8,0.8,0.8
497113.593750,5421402.500000,292.720001,0.8,0.8,0.8
497374.312500,5421169.500000,304.000000,0.8,0.8,0.8
497891.968750,5421578.000000,309.089996,0.8,0.8,0.8
496355.156250,5420964.000000,302.190002,0.8,0.8,0.8
496356.281250,5421666.000000,300.570007,0.8,0.8,0.8
497529.656250,5421247.000000,302.890015,0.8,0.8,0.8
496980.000000,5421465.000000,292.679993,0.8,0.8,0.8
497412.375000,5421424.000000,302.410004,0.8,0.8,0.8
497933.968750,5420928.500000,332.489990,0.8,0.8,0.8
496706.875000,5421652.500000,286.600006,0.8,0.8,0.8
496631.875000,5421116.500000,298.290009,0.8,0.8,0.8
497835.687500,5421039.000000,329.059998,0.8,0.8,0.8
497515.156250,5421121.500000,303.420013,0.8,0.8,0.8
497006.562500,5421436.500000,292.100006,0.8,0.8,0.8
497906.250000,5421005.500000,331.200012,0.8,0.8,0.8
496648.625000,5421673.500000,289.839996,0.8,0.8,0.8
496728.218750,5421545.000000,277.500000,0.8,0.8,0.8
497468.906250,5421425.500000,302.790009,0.8,0.8,0.8
497754.156250,5421438.500000,301.170013,0.8,0.8,0.8
497539.562500,5421563.500000,310.440002,0.8,0.8,0.8
497893.031250,5421399.500000,305.829987,0.8,0.8,0.8
496925.093750,5421592.000000,299.070007,0.8,0.8,0.8
496608.437500,5421288.000000,290.230011,0.8,0.8,0.8
497271.250000,5421120.500000,300.549988,0.8,0.8,0.8
496555.437500,5421509.000000,291.459991,0.8,0.8,0.8
497215.000000,5421403.000000,304.179993,0.8,0.8,0.8
497490.937500,5420919.000000,317.369995,0.8,0.8,0.8
496455.406250,5421090.000000,297.690002,0.8,0.8,0.8
496438.375000,5420972.000000,301.549988,0.8,0.8,0.8
496804.875000,5421282.500000,285.109985,0.8,0.8,0.8
497175.250000,5420892.500000,305.040009,0.8,0.8,0.8
496624.625000,5421091.000000,299.510010,0.8,0.8,0.8
497596.000000,5421675.500000,309.619995,0.8,0.8,0.8
496756.656250,5420758.000000,312.059998,0.8,0.8,0.8
497637.375000,5421080.500000,322.859985,0.8,0.8,0.8
496912.468750,5421119.500000,302.809998,0.8,0.8,0.8
497326.781250,5421056.000000,307.989990,0.8,0.8,0.8
497708.375000,5421215.500000,313.220001,0.8,0.8,0.8
497774.437500,5421521.000000,308.630005,0.8,0.8,0.8
497864.375000,5420924.500000,330.980011,0.8,0.8,0.8
497390.531250,5421492.500000,307.429993,0.8,0.8,0.8
497096.968750,5421279.000000,285.140015,0.8,0.8,0.8
496825.093750,5421592.000000,882.130005,0.8,0.8,0.8
497487.093750,5421562.000000,309.839996,0.8,0.8,0.8
497112.750000,5421774.500000,290.940002,0.8,0.8,0.8
497941.156250,5421612.500000,310.410004,0.8,0.8,0.8
496972.031250,5421243.000000,288.619995,0.8,0.8,0.8
497175.531250,5421205.000000,291.260010,0.8,0.8,0.8
497703.750000,5421490.500000,307.609985,0.8,0.8,0.8
496715.968750,5421674.000000,284.910004,0.8,0.8,0.8
496653.625000,5421668.500000,298.829987,0.8,0.8,0.8
497143.062500,5421750.000000,300.700012,0.8,0.8,0.8
496496.343750,5421653.000000,291.649994,0.8,0.8,0.8
496536.718750,5421010.500000,302.329987,0.8,0.8,0.8
496368.062500,5421625.500000,298.760010,0.8,0.8,0.8
496394.437500,5421514.000000,292.850006,0.8,0.8,0.8
497790.562500,5421751.000000,309.000000,0.8,0.8,0.8
496861.062500,5420777.500000,324.140015,0.8,0.8,0.8
496741.000000,5420973.500000,304.410004,0.8,0.8,0.8
497704.281250,5421099.000000,322.660004,0.8,0.8,0.8
497337.968750,5420973.500000,306.130005,0.8,0.8,0.8
497463.937500,5421731.500000,302.970001,0.8,0.8,0.8
496623.843750,5421454.000000,273.019989,0.8,0.8,0.8
496589.750000,5421237.500000,288.070007,0.8,0.8,0.8
497354.687500,5420958.500000,308.589996,0.8,0.8,0.8
496445.281250,5421068.500000,893.280029,0.8,0.8,0.8
496366.406250,5421051.000000,308.950012,0.8,0.8,0.8
496530.812500,5420993.500000,302.299988,0.8,0.8,0.8
496783.375000,5421604.500000,279.790009,0.8,0.8,0.8
497756.906250,5421468.000000,304.089996,0.8,0.8,0.8
497425.156250,5421621.500000,308.630005,0.8,0.8,0.8
496937.281250,5420767.000000,313.100006,0.8,0.8,0.8
497755.000000,5421779.500000,317.140015,0.8,0.8,0.8
496539.968750,5421085.500000,878.909973,0.8,0.8,0.8
496866.625000,5420960.000000,304.500000,0.8,0.8,0.8
497110.531250,5420923.000000,312.440002,0.8,0.8,0.8
496867.000000,5421022.500000,303.640015,0.8,0.8,0.8
497116.625000,5421405.500000,318.700012,0.8,0.8,0.8
497047.468750,5421614.000000,300.769989,0.8,0.8,0.8
496441.468750,5421376.000000,278.140015,0.8,0.8,0.8
496678.781250,5420939.000000,303.720001,0.8,0.8,0.8
496590.000000,5420896.000000,314.709991,0.8,0.8,0.8
497604.468750,5421801.000000,301.820007,0.8,0.8,0.8
497943.687500,5421618.000000,310.540009,0.8,0.8,0.8
497868.718750,5421189.000000,320.399994,0.8,0.8,0.8
496509.375000,5421265.500000,280.700012,0.8,0.8,0.8
497461.968750,5421297.000000,294.260010,0.8,0.8,0.8
496457.187500,5421136.500000,293.619995,0.8,0.8,0.8
496621.500000,5421031.000000,308.350006,0.8,0.8,0.8
496366.343750,5421176.000000,303.220001,0.8,0.8,0.8
496611.031250,5421531.000000,287.380005,0.8,0.8,0.8
496842.156250,5421622.000000,295.130005,0.8,0.8,0.8
496916.437500,5421140.000000,303.010010,0.8,0.8,0.8
496756.093750,5421590.000000,817.270020,0.8,0.8,0.8
496955.406250,5421050.000000,301.480011,0.8,0.8,0.8
497353.718750,5421734.000000,299.239990,0.8,0.8,0.8
497308.156250,5421171.500000,306.649994,0.8,0.8,0.8
496434.937500,5421086.500000,908.309998,0.8,0.8,0.8
497623.031250,5421259.000000,304.350006,0.8,0.8,0.8
496863.375000,5420871.500000,304.820007,0.8,0.8,0.8
496521.125000,5421478.000000,286.640015,0.8,0.8,0.8
497550.875000,5421108.000000,306.799988,0.8,0.8,0.8
496709.062500,5421535.500000,281.380005,0.8,0.8,0.8
496412.000000,5421673.500000,297.690002,0.8,0.8,0.8
497312.656250,5421561.000000,306.730011,0.8,0.8,0.8
497804.687500,5421085.500000,326.200012,0.8,0.8,0.8
497361.125000,5421024.500000,317.209991,0.8,0.8,0.8
497672.468750,5421481.500000,307.390015,0.8,0.8,0.8
497117.718750,5420940.500000,302.190002,0.8,0.8,0.8
496914.625000,5421122.000000,299.549988,0.8,0.8,0.8
497525.593750,5421806.500000,309.970001,0.8,0.8,0.8
496953.093750,5421456.000000,292.089996,0.8,0.8,0.8
497489.875000,5421281.000000,298.779999,0.8,0.8,0.8
496729.062500,5420936.500000,304.769989,0.8,0.8,0.8
497912.031250,5420930.000000,332.010010,0.8,0.8,0.8
497785.281250,5421031.000000,327.920013,0.8,0.8,0.8
496351.562500,5421243.500000,267.790009,0.8,0.8,0.8
497814.593750,5421412.500000,299.299988,0.8,0.8,0.8
496956.562500,5421154.000000,296.269989,0.8,0.8,0.8
496916.468750,5421148.500000,298.640015,0.8,0.8,0.8
497843.312500,5420872.500000,329.450012,0.8,0.8,0.8
497879.031250,5420982.000000,331.190002,0.8,0.8,0.8
496620.343750,5421173.000000,297.000000,0.8,0.8,0.8
496733.687500,5421485.000000,287.709991,0.8,0.8,0.8
496439.312500,5421160.000000,290.959991,0.8,0.8,0.8
496993.437500,5420957.500000,303.579987,0.8,0.8,0.8
496640.906250,5420767.000000,313.500000,0.8,0.8,0.8
496677.718750,5421680.500000,281.320007,0.8,0.8,0.8
496545.218750,5421584.000000,290.260010,0.8,0.8,0.8
496622.375000,5421274.500000,284.350006,0.8,0.8,0.8
497377.437500,5421377.500000,294.809998,0.8,0.8,0.8
497601.625000,5420941.500000,322.730011,0.8,0.8,0.8
496559.218750,5421430.000000,276.859985,0.8,0.8,0.8
496422.562500,5421361.000000,279.079987,0.8,0.8,0.8
497805.125000,5421225.000000,315.890015,0.8,0.8,0.8
496518.375000,5420954.500000,303.309998,0.8,0.8,0.8
497511.843750,5420983.000000,319.359985,0.8,0.8,0.8
497775.468750,5421159.000000,320.579987,0.8,0.8,0.8
497256.937500,5421561.500000,305.369995,0.8,0.8,0.8
496582.343750,5420876.000000,304.230011,0.8,0.8,0.8
497327.093750,5421230.500000,295.859985,0.8,0.8,0.8
497299.781250,5420873.500000,314.420013,0.8,0.8,0.8
496687.281250,5421396.500000,276.040009,0.8,0.8,0.8
497047.875000,5420865.000000,316.000000,0.8,0.8,0.8
496849.312500,5421515.500000,302.410004,0.8,0.8,0.8
496654.437500,5421680.500000,290.260010,0.8,0.8,0.8
497263.406250,5421624.500000,307.660004,0.8,0.8,0.8
497696.312500,5421664.000000,310.859985,0.8,0.8,0.8
496925.875000,5421380.000000,306.390015,0.8,0.8,0.8
497924.781250,5421239.000000,317.600006,0.8,0.8,0.8
497008.625000,5421533.000000,337.440002,0.8,0.8,0.8
497094.468750,5421753.500000,291.850006,0.8,0.8,0.8
496552.625000,5420918.000000,303.649994,0.8,0.8,0.8
496396.468750,5421223.000000,295.929993,0.8,0.8,0.8
497634.343750,5421429.500000,301.769989,0.8,0.8,0.8
497099.968750,5421762.500000,290.230011,0.8,0.8,0.8
497316.218750,5421237.500000,293.480011,0.8,0.8,0.8
496749.031250,5421463.000000,308.809998,0.8,0.8,0.8
497095.437500,5420892.500000,304.640015,0.8,0.8,0.8
497326.500000,5421282.000000,308.950012,0.8,0.8,0.8
496925.750000,5421401.000000,307.600006,0.8,0.8,0.8
497516.875000,5421793.000000,307.279999,0.8,0.8,0.8
497076.781250,5421084.000000,303.660004,0.8,0.8,0.8
496840.843750,5421278.500000,284.100006,0.8,0.8,0.8
496608.562500,5420858.000000,311.670013,0.8,0.8,0.8
496890.593750,5421439.000000,292.040009,0.8,0.8,0.8
497864.687500,5421062.000000,328.739990,0.8,0.8,0.8
496589.843750,5421482.500000,280.309998,0.8,0.8,0.8
496660.593750,5421743.000000,292.149994,0.8,0.8,0.8
496922.718750,5421579.000000,298.079987,0.8,0.8,0.8
496547.968750,5420868.500000,305.649994,0.8,0.8,0.8
497384.875000,5421172.500000,336.179993,0.8,0.8,0.8
496447.875000,5421141.000000,292.880005,0.8,0.8,0.8
496770.406250,5421270.500000,283.390015,0.8,0.8,0.8
496478.968750,5421183.000000,289.600006,0.8,0.8,0.8
497171.000000,5421191.500000,291.760010,0.8,0.8,0.8
496976.843750,5421682.000000,297.239990,0.8,0.8,0.8
496967.156250,5420967.500000,303.209991,0.8,0.8,0.8
497640.156250,5421291.000000,300.109985,0.8,0.8,0.8
496657.187500,5421384.500000,272.880005,0.8,0.8,0.8
496604.625000,5420979.500000,303.519989,0.8,0.8,0.8
497918.593750,5421795.500000,308.670013,0.8,0.8,0.8
497898.031250,5421576.500000,308.890015,0.8,0.8,0.8
497686.312500,5421773.500000,307.380005,0.8,0.8,0.8
496825.875000,5421604.000000,290.649994,0.8,0.8,0.8
496432.968750,5421237.500000,285.559998,0.8,0.8,0.8
497252.843750,5420753.500000,322.220001,0.8,0.8,0.8
497741.062500,5421235.500000,312.040009,0.8,0.8,0.8
496730.343750,5421253.000000,286.170013,0.8,0.8,0.8
496895.718750,5420968.500000,304.440002,0.8,0.8,0.8
497757.437500,5421764.500000,313.750000,0.8,0.8,0.8
497223.468750,5421209.500000,293.279999,0.8,0.8,0.8
496823.937500,5421725.000000,300.589996,0.8,0.8,0.8
497259.375000,5421524.500000,304.980011,0.8,0.8,0.8
497388.593750,5421783.000000,297.720001,0.8,0.8,0.8
497820.031250,5421071.500000,327.380005,0.8,0.8,0.8
496918.937500,5421433.000000,310.369995,0.8,0.8,0.8
496517.687500,5421505.000000,296.140015,0.8,0.8,0.8
496859.031250,5421767.500000,306.820007,0.8,0.8,0.8
496414.500000,5420942.500000,306.730011,0.8,0.8,0.8
496597.000000,5421466.000000,277.320007,0.8,0.8,0.8
496770.625000,5421432.000000,291.730011,0.8,0.8,0.8
496841.625000,5421546.500000,286.899994,0.8,0.8,0.8
496378.312500,5421090.500000,915.640015,0.8,0.8,0.8
497683.562500,5421641.500000,311.269989,0.8,0.8,0.8
496881.093750,5421577.000000,878.849976,0.8,0.8,0.8
497225.718750,5421710.500000,299.660004,0.8,0.8,0.8
497523.718750,5421577.500000,310.450012,0.8,0.8,0.8
497517.375000,5421103.000000,307.920013,0.8,0.8,0.8
497083.812500,5421373.000000,291.510010,0.8,0.8,0.8
497535.812500,5421193.000000,306.420013,0.8,0.8,0.8
497323.343750,5421238.000000,293.989990,0.8,0.8,0.8
497612.281250,5421243.500000,305.359985,0.8,0.8,0.8
496908.625000,5420863.500000,306.730011,0.8,0.8,0.8
496388.750000,5421087.000000,889.369995,0.8,0.8,0.8
496870.468750,5421477.000000,302.829987,0.8,0.8,0.8
497168.937500,5421494.000000,303.859985,0.8,0.8,0.8
496666.000000,5421670.000000,294.489990,0.8,0.8,0.8
496429.906250,5421164.000000,290.140015,0.8,0.8,0.8
496894.437500,5420858.500000,314.079987,0.8,0.8,0.8
496744.812500,5421237.500000,287.429993,0.8,0.8,0.8
496664.593750,5421152.500000,305.649994,0.8,0.8,0.8
497666.531250,5421079.500000,323.959991,0.8,0.8,0.8
497044.062500,5421176.000000,292.589996,0.8,0.8,0.8
497298.406250,5420973.000000,306.459991,0.8,0.8,0.8
496405.468750,5421500.000000,291.630005,0.8,0.8,0.8
496615.812500,5421548.000000,285.049988,0.8,0.8,0.8
497185.500000,5421458.000000,298.109985,0.8,0.8,0.8
497316.781250,5421634.500000,304.549988,0.8,0.8,0.8
496697.281250,5420905.500000,305.040009,0.8,0.8,0.8
497003.031250,5420895.500000,304.570007,0.8,0.8,0.8
497069.125000,5420985.000000,301.470001,0.8,0.8,0.8
497705.687500,5421501.000000,308.279999,0.8,0.8,0.8
497932.281250,5421492.500000,303.329987,0.8,0.8,0.8
496450.062500,5421274.000000,267.920013,0.8,0.8,0.8
497949.125000,5420757.000000,335.220001,0.8,0.8,0.8
497905.437500,5421034.000000,330.380005,0.8,0.8,0.8
497385.843750,5420882.000000,311.260010,0.8,0.8,0.8
496514.812500,5421100.000000,888.739990,0.8,0.8,0.8
496640.375000,5421765.500000,293.820007,0.8,0.8,0.8
497298.375000,5421703.000000,314.309998,0.8,0.8,0.8
497126.000000,5421574.500000,301.350006,0.8,0.8,0.8
496847.218750,5421485.000000,290.260010,0.8,0.8,0.8
497783.843750,5421112.000000,324.089996,0.8,0.8,0.8
496521.843750,5421598.500000,291.940002,0.8,0.8,0.8
497907.375000,5421493.500000,302.890015,0.8,0.8,0.8
496905.093750,5421474.500000,310.980011,0.8,0.8,0.8
497413.750000,5421798.500000,297.450012,0.8,0.8,0.8
496839.562500,5421039.000000,304.910004,0.8,0.8,0.8
496984.281250,5421657.000000,297.809998,0.8,0.8,0.8
497592.187500,5421271.000000,301.739990,0.8,0.8,0.8
497479.531250,5421226.000000,306.410004,0.8,0.8,0.8
497026.625000,5421119.500000,295.070007,0.8,0.8,0.8
497003.250000,5421428.000000,291.959991,0.8,0.8,0.8
497250.875000,5421438.000000,301.059998,0.8,0.8,0.8
497640.656250,5421666.500000,310.200012,0.8,0.8,0.8
497087.343750,5420895.000000,316.579987,0.8,0.8,0.8
496896.031250,5421780.500000,290.269989,0.8,0.8,0.8
497059.937500,5421376.500000,287.929993,0.8,0.8,0.8
497109.125000,5421800.000000,285.929993,0.8,0.8,0.8
497331.593750,5420934.000000,313.970001,0.8,0.8,0.8
497015.187500,5421038.000000,308.549988,0.8,0.8,0.8
497088.312500,5420939.000000,301.839996,0.8,0.8,0.8
497807.593750,5420957.500000,330.019989,0.8,0.8,0.8
496891.562500,5420860.000000,310.399994,0.8,0.8,0.8
497611.125000,5420938.500000,323.119995,0.8,0.8,0.8
497717.500000,5421709.000000,309.839996,0.8,0.8,0.8
497485.218750,5420982.000000,318.130005,0.8,0.8,0.8
497843.968750,5421638.500000,311.809998,0.8,0.8,0.8
497503.031250,5421747.000000,303.179993,0.8,0.8,0.8
496471.125000,5421481.500000,289.019989,0.8,0.8,0.8
496900.093750,5421646.500000,297.429993,0.8,0.8,0.8
497523.406250,5421619.000000,309.989990,0.8,0.8,0.8
497545.781250,5421655.000000,309.450012,0.8,0.8,0.8
496854.312500,5421058.000000,308.690002,0.8,0.8,0.8
497760.187500,5421563.000000,311.279999,0.8,0.8,0.8
496521.656250,5421235.000000,290.040009,0.8,0.8,0.8
496616.062500,5421367.000000,275.390015,0.8,0.8,0.8
496483.062500,5420914.000000,315.230011,0.8,0.8,0.8
496741.093750,5420900.500000,316.609985,0.8,0.8,0.8
497406.656250,5421660.500000,305.989990,0.8,0.8,0.8
497083.437500,5420936.000000,302.160004,0.8,0.8,0.8
497881.625000,5420999.000000,366.989990,0.8,0.8,0.8
497085.968750,5421134.500000,293.989990,0.8,0.8,0.8
497811.656250,5421642.500000,311.839996,0.8,0.8,0.8
497542.718750,5420873.000000,319.079987,0.8,0.8,0.8
497365.718750,5421156.000000,304.549988,0.8,0.8,0.8
497901.937500,5421408.000000,305.500000,0.8,0.8,0.8
497887.250000,5421667.500000,311.660004,0.8,0.8,0.8
496638.000000,5421029.500000,305.989990,0.8,0.8,0.8
496836.468750,5421387.500000,298.820007,0.8,0.8,0.8
497943.812500,5421021.000000,331.359985,0.8,0.8,0.8
497877.875000,5421477.000000,302.100006,0.8,0.8,0.8
496518.062500,5421372.500000,274.660004,0.8,0.8,0.8
497815.343750,5421525.000000,307.890015,0.8,0.8,0.8
496956.625000,5421559.500000,298.720001,0.8,0.8,0.8
497055.000000,5421739.000000,289.269989,0.8,0.8,0.8
496668.500000,5421477.500000,274.429993,0.8,0.8,0.8
496969.312500,5421570.000000,307.720001,0.8,0.8,0.8
496613.031250,5421155.500000,294.899994,0.8,0.8,0.8
497094.468750,5420925.000000,301.579987,0.8,0.8,0.8
497763.031250,5421031.000000,340.519989,0.8,0.8,0.8
496678.781250,5420853.500000,316.829987,0.8,0.8,0.8
497071.343750,5421708.500000,313.149994,0.8,0.8,0.8
497755.843750,5420939.000000,327.369995,0.8,0.8,0.8
496844.343750,5421627.500000,288.739990,0.8,0.8,0.8
496405.750000,5420998.500000,301.089996,0.8,0.8,0.8
497293.562500,5421564.500000,312.000000,0.8,0.8,0.8
497554.593750,5420942.500000,320.910004,0.8,0.8,0.8
496863.750000,5421505.000000,291.420013,0.8,0.8,0.8
497459.937500,5420954.000000,316.359985,0.8,0.8,0.8
496570.968750,5421744.000000,291.500000,0.8,0.8,0.8
497497.093750,5421559.000000,309.899994,0.8,0.8,0.8
497521.906250,5421720.500000,308.170013,0.8,0.8,0.8
497883.625000,5421532.500000,306.130005,0.8,0.8,0.8
496544.281250,5421519.000000,288.859985,0.8,0.8,0.8
496414.093750,5421156.000000,290.730011,0.8,0.8,0.8
497176.531250,5421069.000000,295.839996,0.8,0.8,0.8
496710.625000,5421397.500000,302.859985,0.8,0.8,0.8
496681.562500,5421458.000000,274.480011,0.8,0.8,0.8
496415.562500,5421142.000000,292.059998,0.8,0.8,0.8
496698.125000,5421383.000000,276.309998,0.8,0.8,0.8
496740.406250,5420852.500000,320.540009,0.8,0.8,0.8
497013.375000,5421601.500000,297.739990,0.8,0.8,0.8
496883.906250,5421570.000000,291.269989,0.8,0.8,0.8
497318.156250,5421382.000000,297.420013,0.8,0.8,0.8
497831.968750,5421190.000000,319.149994,0.8,0.8,0.8
497532.437500,5421018.500000,320.250000,0.8,0.8,0.8
497751.406250,5421235.000000,313.410004,0.8,0.8,0.8
496406.625000,5420855.500000,307.679993,0.8,0.8,0.8
497870.875000,5420962.000000,331.299988,0.8,0.8,0.8
496875.562500,5421159.000000,306.000000,0.8,0.8,0.8
497159.812500,5421474.000000,308.670013,0.8,0.8,0.8
497421.781250,5421171.000000,302.619995,0.8,0.8,0.8
497740.437500,5421217.500000,312.459991,0.8,0.8,0.8
497358.281250,5421068.000000,312.609985,0.8,0.8,0.8
497008.218750,5421353.000000,283.429993,0.8,0.8,0.8
496863.812500,5421122.000000,305.859985,0.8,0.8,0.8
496627.812500,5421598.500000,280.269989,0.8,0.8,0.8
497457.531250,5420947.500000,315.940002,0.8,0.8,0.8
496357.531250,5421695.500000,301.470001,0.8,0.8,0.8
497463.281250,5421260.500000,306.250000,0.8,0.8,0.8
497647.875000,5421478.000000,306.429993,0.8,0.8,0.8
497388.906250,5421186.500000,303.470001,0.8,0.8,0.8
497722.343750,5421728.000000,316.309998,0.8,0.8,0.8
497094.093750,5420767.000000,314.179993,0.8,0.8,0.8
497177.968750,5421214.500000,290.899994,0.8,0.8,0.8
496771.156250,5420984.000000,304.149994,0.8,0.8,0.8
496846.968750,5421059.500000,308.350006,0.8,0.8,0.8
497289.031250,5421268.000000,326.049988,0.8,0.8,0.8
497635.718750,5420777.500000,325.480011,0.8,0.8,0.8
497111.781250,5421156.500000,292.500000,0.8,0.8,0.8
496465.625000,5421637.500000,294.859985,0.8,0.8,0.8
496922.531250,5421061.000000,302.519989,0.8,0.8,0.8
497040.250000,5420840.000000,307.459991,0.8,0.8,0.8
496435.625000,5421201.500000,286.500000,0.8,0.8,0.8
496498.906250,5421271.500000,287.000000,0.8,0.8,0.8
496523.875000,5421058.500000,307.359985,0.8,0.8,0.8
497068.906250,5420949.000000,301.750000,0.8,0.8,0.8
497949.000000,5421682.000000,311.470001,0.8,0.8,0.8
496814.875000,5420989.500000,312.709991,0.8,0.8,0.8
496754.062500,5420847.500000,307.779999,0.8,0.8,0.8
496442.875000,5421155.500000,291.480011,0.8,0.8,0.8
497559.125000,5421115.500000,305.730011,0.8,0.8,0.8
497094.343750,5420773.500000,311.760010,0.8,0.8,0.8
497566.250000,5421464.000000,305.450012,0.8,0.8,0.8
496637.000000,5421655.500000,298.589996,0.8,0.8,0.8
496649.375000,5421517.500000,273.910004,0.8,0.8,0.8
497714.812500,5420965.500000,327.029999,0.8,0.8,0.8
496963.187500,5420781.500000,319.489990,0.8,0.8,0.8
496965.250000,5420915.000000,304.269989,0.8,0.8,0.8
496862.750000,5421440.000000,294.019989,0.8,0.8,0.8
496463.218750,5421677.000000,294.269989,0.8,0.8,0.8
497194.812500,5420772.000000,313.119995,0.8,0.8,0.8
496771.062500,5421038.500000,303.200012,0.8,0.8,0.8
497512.781250,5421660.000000,308.519989,0.8,0.8,0.8
497813.156250,5421713.500000,310.420013,0.8,0.8,0.8
496672.375000,5421604.000000,283.459991,0.8,0.8,0.8
497268.968750,5420885.000000,310.470001,0.8,0.8,0.8
497745.500000,5420959.500000,327.299988,0.8,0.8,0.8
496418.750000,5421211.000000,290.489990,0.8,0.8,0.8
496825.312500,5420751.000000,313.820007,0.8,0.8,0.8
496880.812500,5420848.500000,311.790009,0.8,0.8,0.8
496842.906250,5421532.000000,284.299988,0.8,0.8,0.8
496768.218750,5421718.000000,289.750000,0.8,0.8,0.8
497623.968750,5421102.500000,321.130005,0.8,0.8,0.8
496947.437500,5421003.500000,303.190002,0.8,0.8,0.8
497283.718750,5421111.500000,301.709991,0.8,0.8,0.8
496849.187500,5421504.000000,294.190002,0.8,0.8,0.8
496742.156250,5421390.500000,288.779999,0.8,0.8,0.8
497524.375000,5421500.000000,307.929993,0.8,0.8,0.8
497438.437500,5421714.000000,305.279999,0.8,0.8,0.8
496516.250000,5421690.500000,290.309998,0.8,0.8,0.8
497054.312500,5421500.500000,294.250000,0.8,0.8,0.8
496897.968750,5420861.500000,311.809998,0.8,0.8,0.8
496765.125000,5421708.500000,289.260010,0.8,0.8,0.8
497361.406250,5421011.500000,317.940002,0.8,0.8,0.8
496669.375000,5421676.500000,282.679993,0.8,0.8,0.8
496816.031250,5421653.000000,330.730011,0.8,0.8,0.8
496896.906250,5421458.500000,313.750000,0.8,0.8,0.8
497492.781250,5421658.000000,308.230011,0.8,0.8,0.8
497530.468750,5421453.500000,304.929993,0.8,0.8,0.8
497324.562500,5421710.000000,300.529999,0.8,0.8,0.8
497742.500000,5421497.500000,307.119995,0.8,0.8,0.8
497906.531250,5421055.000000,329.760010,0.8,0.8,0.8
497329.718750,5421581.000000,307.040009,0.8,0.8,0.8
496847.250000,5421542.000000,284.329987,0.8,0.8,0.8
497040.968750,5421041.000000,308.500000,0.8,0.8,0.8
497007.468750,5420990.000000,309.040009,0.8,0.8,0.8
497838.843750,5421685.000000,311.429993,0.8,0.8,0.8
497036.500000,5421492.000000,293.720001,0.8,0.8,0.8
497736.437500,5421271.000000,310.850006,0.8,0.8,0.8
497188.781250,5421536.000000,303.029999,0.8,0.8,0.8
497476.406250,5421126.500000,308.779999,0.8,0.8,0.8
496821.531250,5420850.000000,308.640015,0.8,0.8,0.8
497767.656250,5421550.000000,310.589996,0.8,0.8,0.8
497624.250000,5421175.500000,315.769989,0.8,0.8,0.8
497697.718750,5421615.500000,311.890015,0.8,0.8,0.8
497327.375000,5421021.500000,308.959991,0.8,0.8,0.8
497873.875000,5420989.500000,330.980011,0.8,0.8,0.8
497895.343750,5421259.000000,315.450012,0.8,0.8,0.8
497596.875000,5421740.500000,305.859985,0.8,0.8,0.8
496602.625000,5421078.500000,300.100006,0.8,0.8,0.8
497744.750000,5420766.500000,329.750000,0.8,0.8,0.8
497142.656250,5421136.000000,294.100006,0.8,0.8,0.8
496922.906250,5421566.500000,330.320007,0.8,0.8,0.8
496791.750000,5421191.000000,293.869995,0.8,0.8,0.8
497575.437500,5420954.000000,321.760010,0.8,0.8,0.8
496908.906250,5421519.000000,293.420013,0.8,0.8,0.8
497949.406250,5421767.500000,310.609985,0.8,0.8,0.8
496965.968750,5421135.500000,297.619995,0.8,0.8,0.8
497739.906250,5420870.000000,332.799988,0.8,0.8,0.8
496660.875000,5421682.500000,296.619995,0.8,0.8,0.8
497631.437500,5420768.500000,325.750000,0.8,0.8,0.8
497374.375000,5421507.000000,307.459991,0.8,0.8,0.8
496762.125000,5421023.000000,303.760010,0.8,0.8,0.8
497895.187500,5421430.500000,300.399994,0.8,0.8,0.8
496396.312500,5420973.500000,301.359985,0.8,0.8,0.8
497074.062500,5421721.500000,292.019989,0.8,0.8,0.8
497702.625000,5420916.000000,327.540009,0.8,0.8,0.8
496932.906250,5421704.500000,302.269989,0.8,0.8,0.8
497633.718750,5421010.000000,323.709991,0.8,0.8,0.8
497682.250000,5421046.500000,345.480011,0.8,0.8,0.8
497112.781250,5420962.000000,301.149994,0.8,0.8,0.8
496637.125000,5421381.500000,271.570007,0.8,0.8,0.8
496866.468750,5421481.500000,305.279999,0.8,0.8,0.8
496775.687500,5420906.000000,304.859985,0.8,0.8,0.8
496766.000000,5421735.500000,290.269989,0.8,0.8,0.8
497329.875000,5421274.000000,294.829987,0.8,0.8,0.8
497626.062500,5421594.000000,311.519989,0.8,0.8,0.8
497459.812500,5421724.500000,303.470001,0.8,0.8,0.8
497093.875000,5421443.000000,294.609985,0.8,0.8,0.8
497289.687500,5420970.500000,307.220001,0.8,0.8,0.8
496448.875000,5421367.500000,276.570007,0.8,0.8,0.8
497355.281250,5420783.000000,315.679993,0.8,0.8,0.8
497155.812500,5420781.500000,311.429993,0.8,0.8,0.8
496514.531250,5421067.000000,299.570007,0.8,0.8,0.8
496449.906250,5421224.000000,292.829987,0.8,0.8,0.8
496783.375000,5421434.000000,292.070007,0.8,0.8,0.8
497825.031250,5421705.500000,310.779999,0.8,0.8,0.8
497754.687500,5421427.000000,300.149994,0.8,0.8,0.8
497281.156250,5421263.500000,320.700012,0.8,0.8,0.8
496591.562500,5421127.000000,307.109985,0.8,0.8,0.8
497393.750000,5421395.000000,297.410004,0.8,0.8,0.8
496983.906250,5420869.500000,305.910004,0.8,0.8,0.8
496623.531250,5421226.000000,289.380005,0.8,0.8,0.8
497098.375000,5420923.500000,312.450012,0.8,0.8,0.8
496858.125000,5421715.500000,306.519989,0.8,0.8,0.8
496414.218750,5421111.500000,295.250000,0.8,0.8,0.8
497330.687500,5421125.500000,304.730011,0.8,0.8,0.8
496445.718750,5421088.000000,901.479980,0.8,0.8,0.8
497320.718750,5420912.500000,309.799988,0.8,0.8,0.8
497045.937500,5421736.000000,289.200012,0.8,0.8,0.8
496878.250000,5421040.500000,302.450012,0.8,0.8,0.8
496401.687500,5421079.000000,887.090027,0.8,0.8,0.8
496886.968750,5421156.000000,306.100006,0.8,0.8,0.8
496753.843750,5421040.500000,318.250000,0.8,0.8,0.8
497504.281250,5421594.500000,310.140015,0.8,0.8,0.8
497017.875000,5420785.500000,311.859985,0.8,0.8,0.8
497611.875000,5420779.000000,324.760010,0.8,0.8,0.8
496924.500000,5421785.000000,290.820007,0.8,0.8,0.8
497464.562500,5420931.000000,317.709991,0.8,0.8,0.8
496435.968750,5421614.500000,296.070007,0.8,0.8,0.8
497918.281250,5421790.000000,308.929993,0.8,0.8,0.8
497018.625000,5421715.000000,288.269989,0.8,0.8,0.8
496869.937500,5420916.500000,304.420013,0.8,0.8,0.8
497538.718750,5421100.500000,304.369995,0.8,0.8,0.8
497296.406250,5421719.000000,308.989990,0.8,0.8,0.8
497610.906250,5421579.500000,311.380005,0.8,0.8,0.8
497936.218750,5421597.500000,309.760010,0.8,0.8,0.8
497847.375000,5421097.500000,326.390015,0.8,0.8,0.8
497853.375000,5421167.000000,322.049988,0.8,0.8,0.8
497391.375000,5421468.500000,306.279999,0.8,0.8,0.8
496438.937500,5421627.000000,296.119995,0.8,0.8,0.8
497125.375000,5421510.500000,297.880005,0.8,0.8,0.8
497312.093750,5421066.500000,311.619995,0.8,0.8,0.8
496712.125000,5421238.000000,287.859985,0.8,0.8,0.8
496720.468750,5421724.500000,290.230011,0.8,0.8,0.8
496436.531250,5421745.000000,299.109985,0.8,0.8,0.8
497336.187500,5421684.500000,301.730011,0.8,0.8,0.8
497778.812500,5421182.000000,318.989990,0.8,0.8,0.8
497641.968750,5420861.000000,332.519989,0.8,0.8,0.8
496372.750000,5421244.000000,279.670013,0.8,0.8,0.8
497205.968750,5421179.500000,293.700012,0.8,0.8,0.8
497305.843750,5420909.500000,310.260010,0.8,0.8,0.8
497777.718750,5421762.000000,310.899994,0.8,0.8,0.8
496378.937500,5421452.000000,288.730011,0.8,0.8,0.8
497828.968750,5421280.500000,309.980011,0.8,0.8,0.8
497264.375000,5421735.500000,301.869995,0.8,0.8,0.8
497163.718750,5421459.500000,297.910004,0.8,0.8,0.8
497533.906250,5421250.500000,301.500000,0.8,0.8,0.8
496857.687500,5421414.000000,293.059998,0.8,0.8,0.8
497463.750000,5420865.500000,321.010010,0.8,0.8,0.8
496559.500000,5421743.500000,291.369995,0.8,0.8,0.8
496718.906250,5421095.000000,880.510010,0.8,0.8,0.8
497915.875000,5420967.500000,332.140015,0.8,0.8,0.8
497101.437500,5421429.500000,297.059998,0.8,0.8,0.8
496637.656250,5421214.000000,290.700012,0.8,0.8,0.8
497811.281250,5421679.000000,311.380005,0.8,0.8,0.8
496967.687500,5421169.500000,293.649994,0.8,0.8,0.8
496684.437500,5421099.500000,299.859985,0.8,0.8,0.8
496844.625000,5421383.500000,290.399994,0.8,0.8,0.8
496683.437500,5421733.000000,291.079987,0.8,0.8,0.8
497862.750000,5421138.000000,324.119995,0.8,0.8,0.8
497261.500000,5420995.500000,302.429993,0.8,0.8,0.8
496432.343750,5421094.000000,297.179993,0.8,0.8,0.8
496839.968750,5421087.000000,899.880005,0.8,0.8,0.8
497816.500000,5421160.500000,321.329987,0.8,0.8,0.8
496977.750000,5421513.000000,297.279999,0.8,0.8,0.8
497347.968750,5420916.500000,309.089996,0.8,0.8,0.8
497207.093750,5421417.500000,297.230011,0.8,0.8,0.8
496476.375000,5421233.000000,297.290009,0.8,0.8,0.8
496406.500000,5421302.000000,270.829987,0.8,0.8,0.8
497115.125000,5421177.500000,290.450012,0.8,0.8,0.8
497933.031250,5421578.000000,308.399994,0.8,0.8,0.8
497181.625000,5421789.500000,291.239990,0.8,0.8,0.8
497665.093750,5420956.500000,325.230011,0.8,0.8,0.8
496444.812500,5421605.500000,870.880005,0.8,0.8,0.8
497151.031250,5421157.000000,292.170013,0.8,0.8,0.8
497240.156250,5421794.500000,294.029999,0.8,0.8,0.8
497087.375000,5421087.500000,299.769989,0.8,0.8,0.8
496371.812500,5421512.500000,293.079987,0.8,0.8,0.8
497681.656250,5421053.500000,324.779999,0.8,0.8,0.8
496968.125000,5421762.500000,282.250000,0.8,0.8,0.8
497198.750000,5421387.000000,296.450012,0.8,0.8,0.8
496595.531250,5421671.500000,285.380005,0.8,0.8,0.8
497250.968750,5421131.500000,298.470001,0.8,0.8,0.8
497484.718750,5421211.500000,301.309998,0.8,0.8,0.8
