x,y,z,r,g,b
2163.54,6443.42,-50.293,0.8,0.8,0.8
779.632,769.037,3.17383,0.8,0.8,0.8
5659.92,6830.31,328.247,0.8,0.8,0.8
1619.37,2516.79,807.587,0.8,0.8,0.8
1085.72,5638.65,-19.9585,0.8,0.8,0.8
2660.63,4787.72,-1.12915,0.8,0.8,0.8
6939.92,3710.46,23.8647,0.8,0.8,0.8
583.911,3050.92,-44.1284,0.8,0.8,0.8
6514.43,2832.21,-51.8494,0.8,0.8,0.8
6605.79,4949.67,-13.3362,0.8,0.8,0.8
6971.18,6753.48,-83.0078,0.8,0.8,0.8
6648.84,988.411,-100.8,0.8,0.8,0.8
139.195,5639.81,-32.074,0.8,0.8,0.8
447.007,1748.34,-78.9795,0.8,0.8,0.8
4862.66,3057.41,43.4875,0.8,0.8,0.8
793.47,1501.59,-57.2205,0.8,0.8,0.8
6425.55,373.659,482.544,0.8,0.8,0.8
5272.35,6716.57,148.865,0.8,0.8,0.8
6617.1,4262.44,2.83814,0.8,0.8,0.8
2285.85,3962.43,636.383,0.8,0.8,0.8
4022.63,6631.99,-43.1824,0.8,0.8,0.8
5817.8,7429.92,-43.0603,0.8,0.8,0.8
5491.98,3769.02,-15.1672,0.8,0.8,0.8
2170.26,7028.61,-22.3999,0.8,0.8,0.8
2307.71,3219.53,135.132,0.8,0.8,0.8
2736.24,3471.96,838.715,0.8,0.8,0.8
6402.53,7404.57,-77.9114,0.8,0.8,0.8
658.531,5401.07,13.2141,0.8,0.8,0.8
4136.67,4155.18,996.063,0.8,0.8,0.8
3922.88,1679.58,63.5681,0.8,0.8,0.8
3012.93,6556.06,-26.6724,0.8,0.8,0.8
2265.68,4002.48,382.477,0.8,0.8,0.8
1399.28,4431.21,10.4675,0.8,0.8,0.8
6885.87,4123.7,-49.7437,0.8,0.8,0.8
3471.7,3513.91,153.168,0.8,0.8,0.8
835.724,1961.46,-11.9934,0.8,0.8,0.8
6893.9,5426.39,-22.8577,0.8,0.8,0.8
2401.86,5614.28,-4.79126,0.8,0.8,0.8
4059.22,1109.24,51.4221,0.8,0.8,0.8
3411.91,2198.87,8.20923,0.8,0.8,0.8
1522.63,3258.48,1134.74,0.8,0.8,0.8
5677.07,2912.27,-57.0068,0.8,0.8,0.8
5209.1,6576.12,831.39,0.8,0.8,0.8
1430.97,3602.02,-20.2332,0.8,0.8,0.8
304.986,4414.11,-26.001,0.8,0.8,0.8
5364.73,5255.16,5.06592,0.8,0.8,0.8
3291.92,36.7948,-127.472,0.8,0.8,0.8
1109.73,3546.88,-18.28,0.8,0.8,0.8
2340.62,3683.21,765.594,0.8,0.8,0.8
1857.34,5204.66,-3.32642,0.8,0.8,0.8
3716.44,1378.4,59.6313,0.8,0.8,0.8
1665.48,6005.22,-52.7954,0.8,0.8,0.8
2715.35,5496.32,243.866,0.8,0.8,0.8
5767.07,6185.68,1282.84,0.8,0.8,0.8
5691.67,6178.21,1632.48,0.8,0.8,0.8
2072.55,2336.64,9.85718,0.8,0.8,0.8
2806.16,5474.94,283.081,0.8,0.8,0.8
3075.96,5592.66,321.808,0.8,0.8,0.8
657.392,936.369,410.339,0.8,0.8,0.8
1464.8,3286.09,581.421,0.8,0.8,0.8
4436.79,5670.14,39.5813,0.8,0.8,0.8
2080.04,6327.22,-46.1731,0.8,0.8,0.8
6744.05,3193.04,-43.6096,0.8,0.8,0.8
6266.38,6113.59,128.204,0.8,0.8,0.8
2022.28,1700,-20.3857,0.8,0.8,0.8
4522.46,4295.1,582.245,0.8,0.8,0.8
3248.7,3716.37,1138.64,0.8,0.8,0.8
5260.58,1784.28,40.0085,0.8,0.8,0.8
5434.77,1223.71,13.092,0.8,0.8,0.8
4675.11,5788.4,665.741,0.8,0.8,0.8
5646.77,4690.16,61.8896,0.8,0.8,0.8
462.869,3638.48,-20.7825,0.8,0.8,0.8
5364.18,4594.34,50.3235,0.8,0.8,0.8
1232.79,2340.64,1023.07,0.8,0.8,0.8
6875.81,7534.93,-93.0176,0.8,0.8,0.8
4984.65,6980.9,-27.3132,0.8,0.8,0.8
608.293,5284.9,3.54004,0.8,0.8,0.8
6867.25,5209.64,-30.2124,0.8,0.8,0.8
1095.05,1618.2,-81.6956,0.8,0.8,0.8
5651.2,3083.94,-51.6357,0.8,0.8,0.8
6989.34,6770.48,-85.3271,0.8,0.8,0.8
2763.7,4213.42,382.202,0.8,0.8,0.8
2432.26,7112.29,-70.282,0.8,0.8,0.8
812.087,3192.43,-55.0842,0.8,0.8,0.8
2407.12,4060.72,560.699,0.8,0.8,0.8
5295.8,5203.24,7.93457,0.8,0.8,0.8
4697.7,491.135,-83.374,0.8,0.8,0.8
6370.78,3988.51,-47.9736,0.8,0.8,0.8
2305.17,4676.42,28.3508,0.8,0.8,0.8
6828.57,700.017,1091.61,0.8,0.8,0.8
557.702,3530.76,-33.8745,0.8,0.8,0.8
1773.74,7265.67,-46.4478,0.8,0.8,0.8
3207.04,4339.61,633.087,0.8,0.8,0.8
4885.22,3167.22,26.9775,0.8,0.8,0.8
3581.41,4059.4,1143.25,0.8,0.8,0.8
2559.79,4102.8,827.026,0.8,0.8,0.8
6432.24,4269.45,-30.8838,0.8,0.8,0.8
4172.26,6998.41,-72.1741,0.8,0.8,0.8
2552.07,4464.23,6.50024,0.8,0.8,0.8
2387.64,708.684,-48.0957,0.8,0.8,0.8
4143.61,5646.25,756.927,0.8,0.8,0.8
5708.74,6227,1482.03,0.8,0.8,0.8
5803.83,3358.09,-50.8423,0.8,0.8,0.8
3226.99,4199.83,1075.93,0.8,0.8,0.8
167.883,4800.23,-14.8926,0.8,0.8,0.8
3200.63,3507.49,540.497,0.8,0.8,0.8
4156.39,3638.83,146.881,0.8,0.8,0.8
5693.56,6846.83,24.6887,0.8,0.8,0.8
1582.11,4128.61,29.9377,0.8,0.8,0.8
3349.85,7486.46,-76.3855,0.8,0.8,0.8
5253.78,6157.88,1426.82,0.8,0.8,0.8
2242.95,2204.29,31.5247,0.8,0.8,0.8
511.592,5173.48,-1.25122,0.8,0.8,0.8
1066.19,2878.53,224.274,0.8,0.8,0.8
4226.91,5151.83,-0.640869,0.8,0.8,0.8
2061.9,6277.24,-45.4102,0.8,0.8,0.8
1367.55,3233.59,416.656,0.8,0.8,0.8
5159.94,5866.16,513.397,0.8,0.8,0.8
7156.61,4757.87,-42.572,0.8,0.8,0.8
524.537,4868.37,-19.3176,0.8,0.8,0.8
4946.19,5255.92,14.0686,0.8,0.8,0.8
2808.43,3885.55,1491.39,0.8,0.8,0.8
1965.86,2957.24,579.803,0.8,0.8,0.8
5071.71,3780.5,-1.86157,0.8,0.8,0.8
2958.31,4021.35,1136.23,0.8,0.8,0.8
1592.62,2617.64,1109.71,0.8,0.8,0.8
3598.36,1.4437,-126.984,0.8,0.8,0.8
5386.85,1757.14,33.2031,0.8,0.8,0.8
7420.49,991.24,-112.61,0.8,0.8,0.8
5722.46,6589.83,1079.25,0.8,0.8,0.8
1259.39,3037.3,583.13,0.8,0.8,0.8
2597.47,3572.02,1016.63,0.8,0.8,0.8
166.63,1452.07,-33.5999,0.8,0.8,0.8
3400.95,4446.98,76.9958,0.8,0.8,0.8
2420.23,7433.36,-61.3403,0.8,0.8,0.8
6620.61,2636.94,-41.687,0.8,0.8,0.8
4646.64,7317.91,-18.219,0.8,0.8,0.8
78.3227,3664.67,-13.2446,0.8,0.8,0.8
4618.7,6028.51,829.071,0.8,0.8,0.8
3723.61,7209.63,-47.5769,0.8,0.8,0.8
3190.91,3362.47,176.727,0.8,0.8,0.8
4473.99,4559.35,116.486,0.8,0.8,0.8
1341.07,2295.73,556.641,0.8,0.8,0.8
752.727,2488.83,393.433,0.8,0.8,0.8
7050.35,3734.91,-43.1213,0.8,0.8,0.8
5558.2,6110.12,889.221,0.8,0.8,0.8
5068.31,6649.6,188.385,0.8,0.8,0.8
949.727,7209.29,-57.6477,0.8,0.8,0.8
6126.13,4298.67,-39.1541,0.8,0.8,0.8
5196.41,6142.52,1411.41,0.8,0.8,0.8
1218.51,5559.25,-12.8479,0.8,0.8,0.8
3466.85,5971.12,-18.0359,0.8,0.8,0.8
1796.5,6330.22,-58.7158,0.8,0.8,0.8
604.79,6973.2,-47.6685,0.8,0.8,0.8
5543.18,5557.8,-20.0806,0.8,0.8,0.8
5536.91,2251.6,-60.5469,0.8,0.8,0.8
3495.41,4798.44,4.54712,0.8,0.8,0.8
6077.09,290.823,144.897,0.8,0.8,0.8
6058.99,6070.12,576.843,0.8,0.8,0.8
5035.95,2820.13,12.6953,0.8,0.8,0.8
3355.82,2089.65,34.6375,0.8,0.8,0.8
3516.64,821.36,51.5747,0.8,0.8,0.8
2091.32,2407.84,19.4092,0.8,0.8,0.8
5360.63,2090.21,42.6025,0.8,0.8,0.8
4223.12,2173.89,-2.59399,0.8,0.8,0.8
7227.07,4123.73,-58.1055,0.8,0.8,0.8
1438.94,2315.28,440.277,0.8,0.8,0.8
6155.81,7650.56,-73.0896,0.8,0.8,0.8
6421.98,2363.15,-43.4265,0.8,0.8,0.8
5925.4,3547.26,-41.2292,0.8,0.8,0.8
6879.64,3343.69,-16.4185,0.8,0.8,0.8
1592.79,5353.4,-6.073,0.8,0.8,0.8
749.318,2490.14,123.779,0.8,0.8,0.8
2516.13,6686.27,-29.5105,0.8,0.8,0.8
5707.39,5729.75,-7.87354,0.8,0.8,0.8
6601.73,3251.92,-40.4358,0.8,0.8,0.8
4521.58,467.748,-69.458,0.8,0.8,0.8
6873.8,780.505,-61.0352,0.8,0.8,0.8
3301.27,4465.37,38.208,0.8,0.8,0.8
4370.33,3814.53,509.979,0.8,0.8,0.8
7070.95,4151.38,-38.0859,0.8,0.8,0.8
6540.99,3348.91,-50.5371,0.8,0.8,0.8
5177.69,5504.8,13.1226,0.8,0.8,0.8
6721.32,769.285,374.237,0.8,0.8,0.8
1630.51,6147.97,-69.6716,0.8,0.8,0.8
6040.83,6692.35,581.207,0.8,0.8,0.8
1102.53,846.143,2.89917,0.8,0.8,0.8
6892.33,2136.27,17.7307,0.8,0.8,0.8
6134.97,655.7,-84.3506,0.8,0.8,0.8
4302.53,5999.4,183.38,0.8,0.8,0.8
2363.21,3996.81,731.812,0.8,0.8,0.8
2845.97,5366,275.513,0.8,0.8,0.8
3741.06,3107.48,34.4849,0.8,0.8,0.8
5239.56,3820.95,5.18799,0.8,0.8,0.8
708.476,7170.76,-48.0652,0.8,0.8,0.8
6982.17,114.197,-139.13,0.8,0.8,0.8
3940.84,254.087,-17.0898,0.8,0.8,0.8
5259.37,133.218,-119.537,0.8,0.8,0.8
5060.55,6651.24,82.7026,0.8,0.8,0.8
4073.15,5600.37,370.972,0.8,0.8,0.8
1295.32,3409.15,-27.3743,0.8,0.8,0.8
2838.84,3760.15,1601.35,0.8,0.8,0.8
2096.1,3337.37,261.688,0.8,0.8,0.8
3363.48,3431.32,51.1169,0.8,0.8,0.8
346.614,111.769,34.3933,0.8,0.8,0.8
3370.92,5761.31,-1.83106,0.8,0.8,0.8
1482.21,5298.16,4.21143,0.8,0.8,0.8
6131.44,209.942,-100.311,0.8,0.8,0.8
1179.62,3281.24,-26.3672,0.8,0.8,0.8
3127.31,5625.4,275.604,0.8,0.8,0.8
3961.47,5562.89,197.571,0.8,0.8,0.8
6532.4,2526.73,-39.3677,0.8,0.8,0.8
3050.84,7291.65,-50.4456,0.8,0.8,0.8
2521.73,672.51,151.733,0.8,0.8,0.8
6957.91,696.08,943.512,0.8,0.8,0.8
1520.93,1650.98,-4.30298,0.8,0.8,0.8
6743.92,3530.9,-17.7307,0.8,0.8,0.8
3315.49,6701.49,-49.8657,0.8,0.8,0.8
857.421,2871.72,-30.7617,0.8,0.8,0.8
2979.21,2840.64,42.7551,0.8,0.8,0.8
4263.36,2118.18,-13.1531,0.8,0.8,0.8
4734.72,1652.68,49.1333,0.8,0.8,0.8
5973.79,6748.31,612.03,0.8,0.8,0.8
5085.55,2359.34,-36.1938,0.8,0.8,0.8
1507.21,3393.55,326.843,0.8,0.8,0.8
2038.54,2583.47,22.0337,0.8,0.8,0.8
3847.78,5776.94,827.362,0.8,0.8,0.8
509.703,601.845,57.373,0.8,0.8,0.8
3871.84,4496.96,244.019,0.8,0.8,0.8
1796.86,4648.19,39.2456,0.8,0.8,0.8
7190.36,393.967,533.386,0.8,0.8,0.8
653.803,916.666,-13.092,0.8,0.8,0.8
6813.05,6088.56,-11.0779,0.8,0.8,0.8
4630.29,1738.01,59.6313,0.8,0.8,0.8
5489.6,5893.94,390.106,0.8,0.8,0.8
2256.81,2417.74,36.8347,0.8,0.8,0.8
615.49,5363.21,9.0332,0.8,0.8,0.8
5088.56,243.769,-105.255,0.8,0.8,0.8
3035.07,5559.1,311.157,0.8,0.8,0.8
5820.35,575.201,-103.21,0.8,0.8,0.8
4698.88,6012.43,733.215,0.8,0.8,0.8
2552.19,5382.29,105.011,0.8,0.8,0.8
806.676,5308.16,-14.2822,0.8,0.8,0.8
3379.68,302.217,-89.5996,0.8,0.8,0.8
2222.36,3790.57,630.188,0.8,0.8,0.8
4553.22,4257.85,613.556,0.8,0.8,0.8
1672.75,7621.74,-36.5906,0.8,0.8,0.8
5824.33,1133.56,-80.8716,0.8,0.8,0.8
5158.42,7297.08,-68.9392,0.8,0.8,0.8
3760.09,1209,58.9905,0.8,0.8,0.8
3210.35,3958.99,1192.41,0.8,0.8,0.8
6799.96,594.919,1478.58,0.8,0.8,0.8
1027.88,1130.48,451.935,0.8,0.8,0.8
3898.53,5666.76,842.651,0.8,0.8,0.8
829.104,4344.42,-14.8926,0.8,0.8,0.8
3369.98,1012.91,59.1431,0.8,0.8,0.8
442.852,7558.55,-56.6406,0.8,0.8,0.8
6383.89,4917.84,5.40161,0.8,0.8,0.8
2211.12,6254.76,-46.3562,0.8,0.8,0.8
5207.41,6418.01,947.51,0.8,0.8,0.8
665.437,7410.35,-53.4973,0.8,0.8,0.8
3996.48,4511.82,215.759,0.8,0.8,0.8
1076.69,2105.58,423.34,0.8,0.8,0.8
1940.71,7514.41,-42.1143,0.8,0.8,0.8
1163.42,2666.54,1108.86,0.8,0.8,0.8
4323.56,5878.76,754.822,0.8,0.8,0.8
3001.82,599.938,-44.2505,0.8,0.8,0.8
6868.94,714.12,1075.78,0.8,0.8,0.8
1813.64,3133.71,828.583,0.8,0.8,0.8
1079.57,2209.7,622.589,0.8,0.8,0.8
5554.72,5839.97,149.841,0.8,0.8,0.8
6092.09,6785.11,245.148,0.8,0.8,0.8
582.064,2101.12,68.6035,0.8,0.8,0.8
387.258,2966.91,-46.9055,0.8,0.8,0.8
4028.07,7510.1,-68.7256,0.8,0.8,0.8
1828.21,3905.57,31.4636,0.8,0.8,0.8
7412.55,691.084,-172.913,0.8,0.8,0.8
929.134,2363.59,721.558,0.8,0.8,0.8
3464.19,5597.38,454.987,0.8,0.8,0.8
5940.74,7649.54,-75.6836,0.8,0.8,0.8
2579.45,2707.94,36.438,0.8,0.8,0.8
1676.01,2576.84,478.333,0.8,0.8,0.8
1509.14,3194.98,1163.24,0.8,0.8,0.8
5896.17,5944.65,191.132,0.8,0.8,0.8
6078.26,3381.97,-76.1719,0.8,0.8,0.8
729.082,3049.56,-57.8918,0.8,0.8,0.8
4526.54,7509.68,-48.1262,0.8,0.8,0.8
750.445,6344.8,-7.04956,0.8,0.8,0.8
2881.08,5780.25,27.4353,0.8,0.8,0.8
4647.41,2367.03,-15.3503,0.8,0.8,0.8
363.652,4592.01,-3.84522,0.8,0.8,0.8
7123.92,381.987,454.803,0.8,0.8,0.8
5759.1,3495.12,-30.9753,0.8,0.8,0.8
1240.77,2917.64,1056.34,0.8,0.8,0.8
5703.31,6134.26,856.995,0.8,0.8,0.8
6029.14,2390.48,-78.7048,0.8,0.8,0.8
4729.41,3713.94,5.21851,0.8,0.8,0.8
7266.25,1645.02,-125.488,0.8,0.8,0.8
3784.74,799.375,46.9055,0.8,0.8,0.8
6571.1,995.156,-104.645,0.8,0.8,0.8
967.261,4148.35,-16.3269,0.8,0.8,0.8
4476.81,3611.1,9.21631,0.8,0.8,0.8
235.922,2829.33,-37.7197,0.8,0.8,0.8
5417.82,2310.88,-45.3186,0.8,0.8,0.8
2923.42,7250.19,-61.4014,0.8,0.8,0.8
4665.45,5586.25,11.5967,0.8,0.8,0.8
616.468,1876.61,-45.166,0.8,0.8,0.8
5390.11,6401.21,1552.46,0.8,0.8,0.8
552.163,7217.75,-45.4407,0.8,0.8,0.8
1619.94,2913.18,1196.04,0.8,0.8,0.8
2612.97,3167.29,316.65,0.8,0.8,0.8
2937.52,2115.98,31.4026,0.8,0.8,0.8
2368.39,2927.07,26.4587,0.8,0.8,0.8
6721.84,4297.67,14.9841,0.8,0.8,0.8
6768.76,1140.8,-114.349,0.8,0.8,0.8
932.026,3224.84,-40.0085,0.8,0.8,0.8
2171.89,1223.17,-18.7988,0.8,0.8,0.8
2017,6470.08,-49.4995,0.8,0.8,0.8
5655.15,4458.29,-51.178,0.8,0.8,0.8
3086.64,4178.94,980.896,0.8,0.8,0.8
4217.92,7457.82,-73.6694,0.8,0.8,0.8
4784.18,5942.24,860.718,0.8,0.8,0.8
3994.52,5578.88,733.002,0.8,0.8,0.8
5862.89,351.934,-98.1445,0.8,0.8,0.8
3018.56,3449.38,635.376,0.8,0.8,0.8
2294.2,6662.4,-51.2695,0.8,0.8,0.8
2543.07,4929.74,43.5486,0.8,0.8,0.8
2381.7,6515.73,-35.8582,0.8,0.8,0.8
6855.34,5043.17,25.5737,0.8,0.8,0.8
5243.69,6397.13,937.042,0.8,0.8,0.8
6358.39,3242.36,-53.772,0.8,0.8,0.8
6992.06,542.382,871.582,0.8,0.8,0.8
5383.01,2600.53,-42.9382,0.8,0.8,0.8
5541.13,6369.05,2076.93,0.8,0.8,0.8
1464.27,241.993,2.59399,0.8,0.8,0.8
6605.91,7192.31,-80.1697,0.8,0.8,0.8
837.678,3415.94,-42.8772,0.8,0.8,0.8
4068.12,7213.72,-75.1343,0.8,0.8,0.8
6771.35,3445.61,-21.5454,0.8,0.8,0.8
4322.93,5679.26,471.1,0.8,0.8,0.8
1334.45,2584.83,1025.88,0.8,0.8,0.8
6440.13,385.477,548.889,0.8,0.8,0.8
6444.74,4358.12,-29.9377,0.8,0.8,0.8
2912.28,2471.06,18.7683,0.8,0.8,0.8
6700.46,707.503,631.226,0.8,0.8,0.8
1004.03,1382,-51.4832,0.8,0.8,0.8
5110.34,1676.42,31.7078,0.8,0.8,0.8
2121.54,3689.35,457.764,0.8,0.8,0.8
1000.68,2341.76,1244.72,0.8,0.8,0.8
3105.84,3795.74,1091,0.8,0.8,0.8
3787.42,4490.16,105.316,0.8,0.8,0.8
2159.8,3957.86,132.507,0.8,0.8,0.8
2199.56,3978.65,307.861,0.8,0.8,0.8
2452.26,2819.97,38.7878,0.8,0.8,0.8
4359.43,5701.55,636.841,0.8,0.8,0.8
5914.4,3914.5,-20.1111,0.8,0.8,0.8
792.112,996.87,102.356,0.8,0.8,0.8
5920.17,583.931,-79.4373,0.8,0.8,0.8
6825.99,2837.71,-44.9524,0.8,0.8,0.8
3926.93,3378.31,31.8604,0.8,0.8,0.8
6886.27,5997.81,-30.5176,0.8,0.8,0.8
3484.57,5740.36,19.6533,0.8,0.8,0.8
4663.73,2111.03,32.2571,0.8,0.8,0.8
2552.51,3516.04,1192.5,0.8,0.8,0.8
1659.19,2483.74,179.413,0.8,0.8,0.8
123.879,6241.81,-10.1013,0.8,0.8,0.8
4323.62,4544.94,108.673,0.8,0.8,0.8
610.438,4978.26,-21.1792,0.8,0.8,0.8
2029.83,2898,90.1184,0.8,0.8,0.8
5222.82,5220.38,12.085,0.8,0.8,0.8
6968.98,5337.93,-33.2336,0.8,0.8,0.8
6431.7,4772.15,25.9399,0.8,0.8,0.8
1771.33,2663.34,25.9094,0.8,0.8,0.8
179.171,7469.19,-45.5933,0.8,0.8,0.8
1672.37,4014.18,35.2173,0.8,0.8,0.8
3120.87,6224.85,-10.0708,0.8,0.8,0.8
1578.57,2490.51,664.825,0.8,0.8,0.8
6086.94,2528.53,-86.9446,0.8,0.8,0.8
3952.51,3591.99,291.656,0.8,0.8,0.8
3010.85,20.8394,-109.833,0.8,0.8,0.8
5122.88,6532.85,833.038,0.8,0.8,0.8
4974.65,2343.25,-22.3694,0.8,0.8,0.8
2564.96,6492.74,-12.3901,0.8,0.8,0.8
4922.71,4512.35,92.5598,0.8,0.8,0.8
4267.13,5261.96,16.51,0.8,0.8,0.8
5778.94,475.076,-105.133,0.8,0.8,0.8
1518.22,2859.3,1201.63,0.8,0.8,0.8
4572.66,1.16057,-70.1904,0.8,0.8,0.8
5809.17,5990.5,674.988,0.8,0.8,0.8
1635.4,5314.43,-15.6555,0.8,0.8,0.8
2419.65,3607.38,798.95,0.8,0.8,0.8
969.012,1840.5,-28.3508,0.8,0.8,0.8
3706.06,3132.97,28.9917,0.8,0.8,0.8
1097.28,6079.61,-46.2036,0.8,0.8,0.8
4064.59,7641.67,-72.9675,0.8,0.8,0.8
3934.29,6730.95,-51.1169,0.8,0.8,0.8
2086.76,2454.46,32.1045,0.8,0.8,0.8
1312.11,6644.99,-67.9626,0.8,0.8,0.8
4711.77,6007.29,753.784,0.8,0.8,0.8
6292.49,6169.48,119.263,0.8,0.8,0.8
3096.19,4354.66,218.811,0.8,0.8,0.8
3898.89,5874.58,84.6558,0.8,0.8,0.8
1391.32,1752.81,-12.3291,0.8,0.8,0.8
4766,5072.34,15.2893,0.8,0.8,0.8
3013.07,4743.75,10.9863,0.8,0.8,0.8
693.465,279.732,28.5645,0.8,0.8,0.8
5958.64,1590.92,-64.9719,0.8,0.8,0.8
4121.16,3598.88,340.393,0.8,0.8,0.8
6089.64,2472.2,-81.3904,0.8,0.8,0.8
2532.57,4118.2,198.273,0.8,0.8,0.8
863.899,6437.68,-18.9514,0.8,0.8,0.8
2608.38,5078.75,171.082,0.8,0.8,0.8
2544.45,2065.4,116.302,0.8,0.8,0.8
5222.52,6593.38,637.451,0.8,0.8,0.8
5217.05,6149,1339.72,0.8,0.8,0.8
3065.88,5648.36,38.269,0.8,0.8,0.8
5746.88,6590.94,1332.92,0.8,0.8,0.8
5905.49,363.441,-96.8933,0.8,0.8,0.8
3745.72,7426,-77.3315,0.8,0.8,0.8
5200.05,1209.99,19.8059,0.8,0.8,0.8
4798.57,4326.67,-19.8975,0.8,0.8,0.8
5794.6,6605.31,830.994,0.8,0.8,0.8
5609.56,6282.02,1800.23,0.8,0.8,0.8
1113.21,919.531,-2.83814,0.8,0.8,0.8
3413.5,5947.96,6.04248,0.8,0.8,0.8
3596.56,4468.52,193.207,0.8,0.8,0.8
3180.57,3278.37,38.6047,0.8,0.8,0.8
6788.82,3226.62,-46.0205,0.8,0.8,0.8
2297.35,52.9539,-66.8335,0.8,0.8,0.8
91.702,4736.35,-21.2708,0.8,0.8,0.8
7096.55,25.4123,-141.632,0.8,0.8,0.8
1767.37,4407.71,20.9045,0.8,0.8,0.8
4187.35,4530.21,286.285,0.8,0.8,0.8
2765.7,1257.95,69.0918,0.8,0.8,0.8
2786.31,4195.26,667.145,0.8,0.8,0.8
4463.06,5540.59,36.1938,0.8,0.8,0.8
1311.59,2262.13,441.742,0.8,0.8,0.8
6549.46,5115.48,-20.0806,0.8,0.8,0.8
5409.44,3878.74,14.7705,0.8,0.8,0.8
6445.44,7111.63,-73.5474,0.8,0.8,0.8
4099.29,5908.19,547.485,0.8,0.8,0.8
7100.85,2143.93,-75.6531,0.8,0.8,0.8
3454.24,7677.21,-77.5452,0.8,0.8,0.8
2139.4,3132.45,5.06592,0.8,0.8,0.8
1783.53,1673.25,-25.7568,0.8,0.8,0.8
1028.83,2361.59,1057.04,0.8,0.8,0.8
3435.32,3798.19,1283.17,0.8,0.8,0.8
4168.44,4314,685.608,0.8,0.8,0.8
7312.43,880.754,-153.9,0.8,0.8,0.8
6851.37,3415.6,-26.9775,0.8,0.8,0.8
6064.36,1843.16,-70.9229,0.8,0.8,0.8
5230.53,6254.1,1497.22,0.8,0.8,0.8
2044.96,5393.71,4.3335,0.8,0.8,0.8
6695.45,4428.01,-49.469,0.8,0.8,0.8
1890.05,2827.38,385.651,0.8,0.8,0.8
2149.44,7324.94,-60.3333,0.8,0.8,0.8
6913.29,708.885,1835.17,0.8,0.8,0.8
5648.83,5184.12,-10.4065,0.8,0.8,0.8
7325.52,729.655,-152.527,0.8,0.8,0.8
261.155,75.177,28.9001,0.8,0.8,0.8
2100.52,1952.16,-5.5542,0.8,0.8,0.8
3287.17,1315.64,63.2629,0.8,0.8,0.8
2135.11,6024.21,-31.4636,0.8,0.8,0.8
426.895,5498.22,-2.13623,0.8,0.8,0.8
5807.67,5224.27,-6.68335,0.8,0.8,0.8
4503.89,5970.66,802.795,0.8,0.8,0.8
4799.37,1015.83,-6.46973,0.8,0.8,0.8
4085.65,3139.31,40.1001,0.8,0.8,0.8
3158.29,4008.78,1135.56,0.8,0.8,0.8
6092.89,1926.02,-47.1497,0.8,0.8,0.8
2440.12,74.8311,-78.9185,0.8,0.8,0.8
6866.39,666.058,1249.63,0.8,0.8,0.8
7101.2,4812.83,-47.0276,0.8,0.8,0.8
1934.17,765.765,-44.4641,0.8,0.8,0.8
5425.35,1930.27,79.6509,0.8,0.8,0.8
869.991,3886.88,-16.8457,0.8,0.8,0.8
2969.57,1181.47,74.6155,0.8,0.8,0.8
1200.11,3000.23,445.251,0.8,0.8,0.8
6057.25,7109.01,-57.3425,0.8,0.8,0.8
3408.18,256.129,-19.2261,0.8,0.8,0.8
3401.85,4297.7,956.94,0.8,0.8,0.8
3513.01,6382.36,-39.5203,0.8,0.8,0.8
4172.68,3819.75,561.92,0.8,0.8,0.8
4660.69,6634.54,-19.104,0.8,0.8,0.8
2810.83,26.9871,-109.589,0.8,0.8,0.8
6606.66,6557.95,-56.8848,0.8,0.8,0.8
4282.06,2615.12,28.5034,0.8,0.8,0.8
6505.44,832.446,2795.07,0.8,0.8,0.8
1311.83,2224.03,444,0.8,0.8,0.8
681.33,7133.8,-35.5225,0.8,0.8,0.8
4450.52,3623.24,409.821,0.8,0.8,0.8
5753.91,6575.97,1353.73,0.8,0.8,0.8
3526.09,3543.35,234.131,0.8,0.8,0.8
927.567,1562.31,-23.3154,0.8,0.8,0.8
2212.06,3492.78,458.893,0.8,0.8,0.8
886.426,2661.16,329.346,0.8,0.8,0.8
4822.49,1343.88,36.8652,0.8,0.8,0.8
6102.15,4532.56,-25.0549,0.8,0.8,0.8
4534.4,6884.96,-21.8201,0.8,0.8,0.8
1953.47,2863.88,112.183,0.8,0.8,0.8
62.9536,4677.91,-27.832,0.8,0.8,0.8
3739.84,3539.73,359.802,0.8,0.8,0.8
5533.28,4567.28,97.0459,0.8,0.8,0.8
4910.03,6605.44,61.615,0.8,0.8,0.8
2798.12,3979.07,1209.08,0.8,0.8,0.8
4719.16,4840.02,16.9373,0.8,0.8,0.8
3878.47,4493.25,439.789,0.8,0.8,0.8
5923.94,6914.58,110.931,0.8,0.8,0.8
187.016,113.122,22.9797,0.8,0.8,0.8
1491.37,1342.7,-11.4136,0.8,0.8,0.8
3556.59,2065.89,-2.28882,0.8,0.8,0.8
1160.27,3142.51,-26.4587,0.8,0.8,0.8
3703.78,4478.64,198.425,0.8,0.8,0.8
6219.02,812.36,38.4521,0.8,0.8,0.8
1505.73,6841.41,-73.4253,0.8,0.8,0.8
3972.58,2334.66,17.4255,0.8,0.8,0.8
3089.38,3601.77,872.864,0.8,0.8,0.8
3863.46,2227.21,11.9629,0.8,0.8,0.8
2578.45,4136.29,410.706,0.8,0.8,0.8
4294.26,5669.74,586.151,0.8,0.8,0.8
6558.79,7187.72,-88.8977,0.8,0.8,0.8
6254.05,6823.72,-55.4199,0.8,0.8,0.8
6816.03,585.254,680.023,0.8,0.8,0.8
1824.32,2228.14,-20.3857,0.8,0.8,0.8
6465.23,6991.26,-83.1299,0.8,0.8,0.8
6536.15,823.911,2871,0.8,0.8,0.8
4287.19,5986.06,440.247,0.8,0.8,0.8
5554.79,1098.25,146.179,0.8,0.8,0.8
2471.82,1542.75,4.69971,0.8,0.8,0.8
2050.69,6991.01,-67.3828,0.8,0.8,0.8
6834.07,6537.88,25.3906,0.8,0.8,0.8
2905.43,7049.12,-74.2188,0.8,0.8,0.8
4083.99,5749.41,829.773,0.8,0.8,0.8
7208.96,1896.33,-99.7314,0.8,0.8,0.8
914.035,4129.51,-14.7095,0.8,0.8,0.8
1623.99,2407.58,49.9573,0.8,0.8,0.8
1916.05,5652.22,-30.7617,0.8,0.8,0.8
6526.35,2186.06,-56.5796,0.8,0.8,0.8
3926.27,3581.86,189.941,0.8,0.8,0.8
4626.94,1112.82,39.5508,0.8,0.8,0.8
6086.38,6129.5,776.306,0.8,0.8,0.8
1329.21,3685.09,-0.671387,0.8,0.8,0.8
5714.86,53.248,-115.082,0.8,0.8,0.8
5995.14,6504.47,1382.57,0.8,0.8,0.8
924.188,3921,-26.3977,0.8,0.8,0.8
1076.16,2299.34,1181.55,0.8,0.8,0.8
3362.56,3739.27,1020.23,0.8,0.8,0.8
521.834,2424.19,-21.5149,0.8,0.8,0.8
3887.32,5758.56,856.323,0.8,0.8,0.8
3767.62,7651.55,-75.8667,0.8,0.8,0.8
6758.37,575.188,1463.78,0.8,0.8,0.8
3599.61,1263.73,60.0586,0.8,0.8,0.8
5471.56,6618.24,853.485,0.8,0.8,0.8
408.073,7014.57,-46.8445,0.8,0.8,0.8
5246.96,7680.87,-85.1135,0.8,0.8,0.8
1253.56,6231.41,-71.8384,0.8,0.8,0.8
3820.76,5736.19,611.298,0.8,0.8,0.8
916.393,4407.95,-20.6604,0.8,0.8,0.8
614.031,6135.28,10.9253,0.8,0.8,0.8
2008.63,4131.32,55.9387,0.8,0.8,0.8
1039.64,2152.37,446.808,0.8,0.8,0.8
5609.12,6467.19,1659.45,0.8,0.8,0.8
6474.51,324.592,192.566,0.8,0.8,0.8
1133.28,2184.78,665.863,0.8,0.8,0.8
345.824,1121.58,-47.4854,0.8,0.8,0.8
2297.1,5447.02,-0.335693,0.8,0.8,0.8
211.009,5918.25,-13.9771,0.8,0.8,0.8
3171.91,3504.49,697.205,0.8,0.8,0.8
1088.2,5504.5,-12.3596,0.8,0.8,0.8
1574.15,3339.3,785.065,0.8,0.8,0.8
2569.85,6801.53,-47.9126,0.8,0.8,0.8
7349.41,1920.78,-104.462,0.8,0.8,0.8
1886.81,901.506,-32.0129,0.8,0.8,0.8
3395,4440.83,301.819,0.8,0.8,0.8
1010.84,3274.7,-29.2358,0.8,0.8,0.8
2249.96,5475.77,-2.96021,0.8,0.8,0.8
1991.77,2812.47,5.92041,0.8,0.8,0.8
2521.76,3360.15,456.116,0.8,0.8,0.8
1165.91,2538.9,1192.05,0.8,0.8,0.8
2509.29,1667.56,179.016,0.8,0.8,0.8
505.146,6394.14,-6.71387,0.8,0.8,0.8
4544.79,502.878,-71.4417,0.8,0.8,0.8
281.065,6819,-36.0718,0.8,0.8,0.8
1321.62,1882.79,-15.564,0.8,0.8,0.8
7131.6,547.618,1128.33,0.8,0.8,0.8
2728.04,930.409,198.608,0.8,0.8,0.8
6223.56,6806.08,-58.0139,0.8,0.8,0.8
2461.96,3701.96,895.05,0.8,0.8,0.8
4392.85,3104.77,37.9333,0.8,0.8,0.8
184.949,4672.28,-5.21851,0.8,0.8,0.8
5252.57,2044.91,44.342,0.8,0.8,0.8
6275.23,750.943,-113.892,0.8,0.8,0.8
3149.21,432.861,-75.1648,0.8,0.8,0.8
2685.49,5573.52,10.4065,0.8,0.8,0.8
3071.45,1341.88,32.135,0.8,0.8,0.8
3939,7228.39,-64.6057,0.8,0.8,0.8
5029.23,6642.41,21.8201,0.8,0.8,0.8
733.31,937.948,-3.69263,0.8,0.8,0.8
6612.79,557.936,864.075,0.8,0.8,0.8
4449.19,6649.48,-26.3977,0.8,0.8,0.8
2985.41,1149.9,72.7539,0.8,0.8,0.8
4500.26,7238.98,-72.5098,0.8,0.8,0.8
5347.18,6063.79,970.367,0.8,0.8,0.8
6167.25,4272.15,-16.9983,0.8,0.8,0.8
2171,6300.27,-46.1731,0.8,0.8,0.8
5285.73,4870.51,4.57764,0.8,0.8,0.8
874.83,1039.52,790.558,0.8,0.8,0.8
4391.9,5701,477.02,0.8,0.8,0.8
4621.03,1588.95,38.3606,0.8,0.8,0.8
2140.46,6437.46,-44.6167,0.8,0.8,0.8
4647.12,3883.59,454.742,0.8,0.8,0.8
2879.84,3616.7,1082.89,0.8,0.8,0.8
5677.09,6000.84,788.635,0.8,0.8,0.8
1968.59,3000.58,467.743,0.8,0.8,0.8
1728.34,3199.47,819.855,0.8,0.8,0.8
5331.6,4307.83,-43.5791,0.8,0.8,0.8
1452.53,3271.54,695.923,0.8,0.8,0.8
4175.54,4482.66,463.409,0.8,0.8,0.8
4138.12,2814.18,38.269,0.8,0.8,0.8
1436.77,6384.54,-75.0427,0.8,0.8,0.8
341.144,2681.08,-44.5251,0.8,0.8,0.8
4084.37,5605.33,141.052,0.8,0.8,0.8
3776.17,225.59,-82.8552,0.8,0.8,0.8
1063.55,1576.33,27.0996,0.8,0.8,0.8
5996.83,1098.75,-75.6531,0.8,0.8,0.8
4612.01,595.221,-75.5615,0.8,0.8,0.8
2742.85,5228.5,270.172,0.8,0.8,0.8
3736.14,3690.26,647.125,0.8,0.8,0.8
4237.4,5511.35,39.1846,0.8,0.8,0.8
6928.8,729.946,1504.55,0.8,0.8,0.8
4688.43,6361.77,170.776,0.8,0.8,0.8
525.183,4934.46,-19.5923,0.8,0.8,0.8
3012.92,4308.23,457.275,0.8,0.8,0.8
2454.21,3397.31,447.54,0.8,0.8,0.8
4118.01,1868.38,62.9578,0.8,0.8,0.8
4348.75,3867.5,558.441,0.8,0.8,0.8
4229.23,5127.69,-5.5542,0.8,0.8,0.8
3765.28,3597.52,444.885,0.8,0.8,0.8
5815.41,2172.89,-79.8645,0.8,0.8,0.8
4040.82,5591.55,202.179,0.8,0.8,0.8
6068.35,6607.43,635.803,0.8,0.8,0.8
7212.07,653.951,-128.479,0.8,0.8,0.8
3134.94,255.413,-102.417,0.8,0.8,0.8
1126.08,7434.28,-47.3022,0.8,0.8,0.8
4334.79,2196.99,-7.47681,0.8,0.8,0.8
4496.91,1269.03,49.3469,0.8,0.8,0.8
2797.26,3180.82,34.2712,0.8,0.8,0.8
228.444,1039,-3.14331,0.8,0.8,0.8
3105.97,1350.39,66.1316,0.8,0.8,0.8
3151.47,2040.19,33.6914,0.8,0.8,0.8
5649.69,1468.57,162.201,0.8,0.8,0.8
3981.65,1452.6,60.2112,0.8,0.8,0.8
5725.06,6163.7,970.428,0.8,0.8,0.8
1395.27,4799.49,3.41797,0.8,0.8,0.8
6519.7,6592.34,-57.4646,0.8,0.8,0.8
5527.41,7430.06,-44.9524,0.8,0.8,0.8
5665.74,7304.49,-45.6238,0.8,0.8,0.8
4759.94,4664.27,15.564,0.8,0.8,0.8
2086.13,3733.77,94.1162,0.8,0.8,0.8
1083.29,2226.91,480.225,0.8,0.8,0.8
2293.66,5357.5,17.7307,0.8,0.8,0.8
6648.6,808.997,2508.03,0.8,0.8,0.8
3769.2,4485.87,238.464,0.8,0.8,0.8
1792.59,2719.64,575.073,0.8,0.8,0.8
7287.08,2644.37,-103.76,0.8,0.8,0.8
3870,600.4,-48.2788,0.8,0.8,0.8
487.712,6792.23,-36.8652,0.8,0.8,0.8
1884.95,436.333,-42.8162,0.8,0.8,0.8
112.965,6758.06,-43.0603,0.8,0.8,0.8
1472.37,2555.32,1137.21,0.8,0.8,0.8
5016.88,5839.43,250.366,0.8,0.8,0.8
4456.76,3890.84,649.689,0.8,0.8,0.8
1916.66,2117.1,-12.3291,0.8,0.8,0.8
3146.15,4374.5,330.109,0.8,0.8,0.8
3944.97,663.953,13.1836,0.8,0.8,0.8
2521.26,3676.91,1022.31,0.8,0.8,0.8
2154.91,5944.09,-21.3013,0.8,0.8,0.8
5590.21,80.1166,-128.967,0.8,0.8,0.8
5057.73,5853.98,613.8,0.8,0.8,0.8
2542.31,3041.71,14.7705,0.8,0.8,0.8
998.284,2312.9,981.628,0.8,0.8,0.8
3564.38,4948.26,10.1318,0.8,0.8,0.8
6950.47,691.52,2225.65,0.8,0.8,0.8
5776.89,5981.53,494.965,0.8,0.8,0.8
4809.79,6093.46,604.37,0.8,0.8,0.8
3237.3,1102.5,27.4658,0.8,0.8,0.8
3597.99,2447.08,14.0381,0.8,0.8,0.8
2921.59,6466.96,-14.9841,0.8,0.8,0.8
3360.7,6922.31,-57.4341,0.8,0.8,0.8
3336,3417.76,201.08,0.8,0.8,0.8
6673.52,579.074,1386.26,0.8,0.8,0.8
3150.76,3959.02,1112.73,0.8,0.8,0.8
4378.68,7001.47,-55.8777,0.8,0.8,0.8
3324.6,52.6185,-125.854,0.8,0.8,0.8
2564.35,3117.98,219.177,0.8,0.8,0.8
6165.2,4099.2,83.0383,0.8,0.8,0.8
5884.69,2748.2,-64.5447,0.8,0.8,0.8
2279.46,879.899,-33.844,0.8,0.8,0.8
6349.15,4111.62,-2.13623,0.8,0.8,0.8
1701.6,2621.13,786.469,0.8,0.8,0.8
5095.28,377.956,-99.1211,0.8,0.8,0.8
2099.19,378.294,-53.2227,0.8,0.8,0.8
5758.96,5227.21,3.23486,0.8,0.8,0.8
675.29,3027.26,-53.2837,0.8,0.8,0.8
3509.11,665.022,-43.5486,0.8,0.8,0.8
1983.9,2927.76,347.626,0.8,0.8,0.8
1535.07,7147.55,-51.6968,0.8,0.8,0.8
5998.75,4035.98,21.4844,0.8,0.8,0.8
3682.18,3826.4,948.273,0.8,0.8,0.8
393.856,2277.33,-27.2217,0.8,0.8,0.8
4030.21,4028.77,883.026,0.8,0.8,0.8
5873.69,2455.82,-91.7358,0.8,0.8,0.8
3332.46,6750.79,-51.239,0.8,0.8,0.8
2646.28,4686.12,13.8245,0.8,0.8,0.8
3797.34,3501.77,57.4036,0.8,0.8,0.8
2225.86,6975.91,-52.9785,0.8,0.8,0.8
6780.16,3156.83,-35.1257,0.8,0.8,0.8
988.18,3491.36,-28.1372,0.8,0.8,0.8
3802.94,6512.58,-31.0364,0.8,0.8,0.8
748.4,1533.73,-70.4651,0.8,0.8,0.8
3128.88,5070.62,30.5481,0.8,0.8,0.8
4281.9,3796.91,507.751,0.8,0.8,0.8
1369,1592.49,-11.4136,0.8,0.8,0.8
4188.12,7469.47,-78.7354,0.8,0.8,0.8
5871.52,2625,-97.4731,0.8,0.8,0.8
5812.55,6465.07,884.918,0.8,0.8,0.8
4978.75,4630.9,-8.94165,0.8,0.8,0.8
3080.16,848.595,61.7981,0.8,0.8,0.8
4621.86,918.774,34.1797,0.8,0.8,0.8
901.097,3959.9,-25.5127,0.8,0.8,0.8
6925.09,736.571,1440.16,0.8,0.8,0.8
3897.8,3540.72,415.039,0.8,0.8,0.8
6001.32,2036.06,-72.6929,0.8,0.8,0.8
4094.94,5148.06,15.2588,0.8,0.8,0.8
5760.95,6288.4,1714.14,0.8,0.8,0.8
4811.29,4445.87,77.4231,0.8,0.8,0.8
3591.81,3871.28,1093.57,0.8,0.8,0.8
2776.98,1290.08,66.5283,0.8,0.8,0.8
6499.02,330.264,183.472,0.8,0.8,0.8
6713.72,2667.16,-36.7737,0.8,0.8,0.8
6101.91,768.582,-86.1816,0.8,0.8,0.8
6055.07,6914.05,189.636,0.8,0.8,0.8
4191.24,2026.81,65.4907,0.8,0.8,0.8
6607.28,5475.35,5.24902,0.8,0.8,0.8
5479.41,5819.07,117.706,0.8,0.8,0.8
2672.05,4138.79,823.486,0.8,0.8,0.8
283.013,7483.34,-48.645,0.8,0.8,0.8
2167.08,4819.95,119.171,0.8,0.8,0.8
3827.81,5557.86,561.768,0.8,0.8,0.8
2227.51,6024.7,-19.3481,0.8,0.8,0.8
4527.85,3907.21,447.449,0.8,0.8,0.8
2304.35,5261.01,63.6597,0.8,0.8,0.8
6831.24,617.474,690.491,0.8,0.8,0.8
4919.95,6391.37,265.106,0.8,0.8,0.8
1728.24,6038.36,-58.3496,0.8,0.8,0.8
2376.5,580.054,-57.5256,0.8,0.8,0.8
3478.3,1781.04,59.967,0.8,0.8,0.8
2737.93,4211.77,63.5986,0.8,0.8,0.8
2296.96,6907.48,-34.8511,0.8,0.8,0.8
4023.29,5583.37,799.5,0.8,0.8,0.8
6180.67,4059.64,-7.75146,0.8,0.8,0.8
3454.93,245.182,-99.7009,0.8,0.8,0.8
808.092,848.114,-15.4724,0.8,0.8,0.8
5453.42,573.28,-96.7407,0.8,0.8,0.8
5321.31,6441.27,952.728,0.8,0.8,0.8
4144.89,1711.59,64.1174,0.8,0.8,0.8
2936.92,2831.9,40.1611,0.8,0.8,0.8
6879.7,2363.2,-55.1758,0.8,0.8,0.8
6919.22,2674.91,44.0063,0.8,0.8,0.8
5464.09,5614.23,-19.2871,0.8,0.8,0.8
1988.95,4237.77,34.2407,0.8,0.8,0.8
4911.37,5830.71,778.595,0.8,0.8,0.8
7255.27,1037.29,-145.752,0.8,0.8,0.8
3405.19,2172.15,7.2937,0.8,0.8,0.8
7268.68,1592.69,-130.676,0.8,0.8,0.8
914.096,2589.6,447.174,0.8,0.8,0.8
154.389,1579.09,8.02612,0.8,0.8,0.8
442.556,3380.51,-43.6707,0.8,0.8,0.8
4157.8,5714.98,724.487,0.8,0.8,0.8
5822.28,2861.42,-48.9807,0.8,0.8,0.8
4347.87,6254.31,-6.5918,0.8,0.8,0.8
2682.58,6553.67,-19.104,0.8,0.8,0.8
6508.22,3960.2,-49.7742,0.8,0.8,0.8
4702.6,7250.87,-44.1895,0.8,0.8,0.8
5717.93,6853.73,19.8669,0.8,0.8,0.8
6889.54,7298.95,-82.6416,0.8,0.8,0.8
4127.81,553.052,-59.7229,0.8,0.8,0.8
1837.12,3054.59,940.643,0.8,0.8,0.8
1174.74,2934.75,521.667,0.8,0.8,0.8
4842.54,1270.11,32.8674,0.8,0.8,0.8
4333.54,3876.67,679.565,0.8,0.8,0.8
3072.97,412.476,-95.459,0.8,0.8,0.8
6189.45,4887.68,-3.14331,0.8,0.8,0.8
5775.44,780.98,-97.4426,0.8,0.8,0.8
4544.17,6089.49,200.134,0.8,0.8,0.8
1215.54,1454,-18.0054,0.8,0.8,0.8
5401.05,6243.83,1684.48,0.8,0.8,0.8
567.639,6889.39,-44.1589,0.8,0.8,0.8
5442.6,6418.28,1520.54,0.8,0.8,0.8
2356.51,2444.53,42.0532,0.8,0.8,0.8
1575.9,6631.21,-75.1648,0.8,0.8,0.8
3899.53,3143.78,43.3655,0.8,0.8,0.8
2181.11,5394.7,0.030518,0.8,0.8,0.8
5476.95,4213.93,-12.6648,0.8,0.8,0.8
5450.2,6287.22,1865.26,0.8,0.8,0.8
7287.28,962.805,-152.13,0.8,0.8,0.8
5488.41,5820.7,53.6804,0.8,0.8,0.8
6000.75,6898.72,373.657,0.8,0.8,0.8
6329.84,597.205,-83.0078,0.8,0.8,0.8
562.736,1204.08,-43.3655,0.8,0.8,0.8
4435.57,6025.36,480.53,0.8,0.8,0.8
5859.69,70.9346,-77.1484,0.8,0.8,0.8
3342.9,1372.8,64.209,0.8,0.8,0.8
4678.9,6835.25,-16.2964,0.8,0.8,0.8
3778.51,3281.35,33.5999,0.8,0.8,0.8
5949.48,5208.04,-10.9253,0.8,0.8,0.8
6517.11,401.069,639.893,0.8,0.8,0.8
5180.59,5865.34,531.799,0.8,0.8,0.8
3706.91,4473.16,356.476,0.8,0.8,0.8
7031.01,785.307,451.294,0.8,0.8,0.8
5811.97,6348.2,1534.15,0.8,0.8,0.8
612.017,6474.44,-7.38525,0.8,0.8,0.8
6979.73,5723.53,-20.2942,0.8,0.8,0.8
5538.35,6702.2,465.546,0.8,0.8,0.8
4010.9,3005.42,40.1611,0.8,0.8,0.8
1188.56,5174.88,-22.1863,0.8,0.8,0.8
3675.57,1349.42,62.0422,0.8,0.8,0.8
3250.79,21.386,-125.061,0.8,0.8,0.8
4395.08,3188.36,43.7927,0.8,0.8,0.8
1128.28,89.1562,-4.48608,0.8,0.8,0.8
5083.61,4373.44,-16.2964,0.8,0.8,0.8
914.44,7236.31,-50.293,0.8,0.8,0.8
4679.12,6686.05,-13.0615,0.8,0.8,0.8
3887.74,4704.61,8.78906,0.8,0.8,0.8
264.608,6120.16,-4.91333,0.8,0.8,0.8
1551.48,2209.59,-23.2239,0.8,0.8,0.8
3935.46,4504.56,216.858,0.8,0.8,0.8
4574.82,669.569,-73.7,0.8,0.8,0.8
4253.46,4066.47,717.468,0.8,0.8,0.8
811.465,2733.08,-19.989,0.8,0.8,0.8
301.836,6506.88,-29.2664,0.8,0.8,0.8
205.555,4047.69,4.24194,0.8,0.8,0.8
4448.51,1084.18,42.3584,0.8,0.8,0.8
6618.77,3030.14,-51.4221,0.8,0.8,0.8
2887.97,2800.97,36.9263,0.8,0.8,0.8
5477.72,5814.93,32.4097,0.8,0.8,0.8
165.736,3297.49,-15.625,0.8,0.8,0.8
3384.38,4160.23,1469.09,0.8,0.8,0.8
6555.48,2382.75,-55.9387,0.8,0.8,0.8
2724.36,1516.13,73.9441,0.8,0.8,0.8
3400.85,5386.86,247.314,0.8,0.8,0.8
1217.21,74.987,-13.5193,0.8,0.8,0.8
3945.55,5586.14,926.88,0.8,0.8,0.8
4372.34,3984.05,674.896,0.8,0.8,0.8
1078.79,2344.71,1284.33,0.8,0.8,0.8
3347.55,5222.4,50.4761,0.8,0.8,0.8
943.121,6238.24,44.0369,0.8,0.8,0.8
4502.93,4435.56,461.121,0.8,0.8,0.8
2643.19,1659.05,218.262,0.8,0.8,0.8
6605.08,3690.59,10.376,0.8,0.8,0.8
1242.77,1855.34,-49.9268,0.8,0.8,0.8
6631.48,947.537,-108.032,0.8,0.8,0.8
252.814,2760.44,-52.7344,0.8,0.8,0.8
6100.08,7391.38,-30.5786,0.8,0.8,0.8
4572.81,3714.92,447.937,0.8,0.8,0.8
3436.55,4743.63,17.6697,0.8,0.8,0.8
6880.65,786.205,410.248,0.8,0.8,0.8
6891.02,6960.85,-77.5757,0.8,0.8,0.8
6709.45,4319.27,-0.762939,0.8,0.8,0.8
2869.91,3601.73,1203.31,0.8,0.8,0.8
5447.51,6760.75,373.627,0.8,0.8,0.8
778.979,4399.81,-15.1367,0.8,0.8,0.8
5911.83,7466.35,-41.5039,0.8,0.8,0.8
6874.44,738.277,1973.45,0.8,0.8,0.8
6969.29,726.056,1352.72,0.8,0.8,0.8
5425.07,6032.17,965.485,0.8,0.8,0.8
2792.05,2666.1,30.8533,0.8,0.8,0.8
4137.54,5617.2,400.543,0.8,0.8,0.8
7019.99,660.528,1977.42,0.8,0.8,0.8
4211.29,3589.95,383.087,0.8,0.8,0.8
4860.28,3794.92,105.103,0.8,0.8,0.8
287.259,2124.49,-26.7029,0.8,0.8,0.8
3399.62,3731.69,987.946,0.8,0.8,0.8
1232.37,2790.97,1005.52,0.8,0.8,0.8
5611.57,627.802,-98.4802,0.8,0.8,0.8
1986.5,3009.84,108.063,0.8,0.8,0.8
1235.58,5969.89,-43.9453,0.8,0.8,0.8
6640.99,3591.75,-4.63867,0.8,0.8,0.8
5732.3,1826.01,-51.4526,0.8,0.8,0.8
6256.93,3931.08,-36.3464,0.8,0.8,0.8
5403.5,6331.93,1635.56,0.8,0.8,0.8
5725.4,6224.53,1531.28,0.8,0.8,0.8
1755.44,2060.21,-22.3389,0.8,0.8,0.8
1284.03,3136.05,197.54,0.8,0.8,0.8
631.756,929.578,514.648,0.8,0.8,0.8
4022.81,7323.27,-79.2542,0.8,0.8,0.8
442.286,2172.69,-13.0005,0.8,0.8,0.8
742.63,2918.57,-53.009,0.8,0.8,0.8
4579.68,6331.44,140.686,0.8,0.8,0.8
4561.82,5564.48,17.0898,0.8,0.8,0.8
4272.74,3509.94,39.4592,0.8,0.8,0.8
957.267,5418.51,-22.1558,0.8,0.8,0.8
2502.95,7628.08,-68.2068,0.8,0.8,0.8
3703.66,4817.8,8.08716,0.8,0.8,0.8
5231.56,-3.49166,-130.249,0.8,0.8,0.8
3609.13,6265.76,-18.7073,0.8,0.8,0.8
942.156,209.605,2.2583,0.8,0.8,0.8
6951.68,703.144,864.777,0.8,0.8,0.8
1504.21,2363.73,408.6,0.8,0.8,0.8
3159.21,3494.02,527.618,0.8,0.8,0.8
2773.79,3574.4,1170.47,0.8,0.8,0.8
2896,7292.08,-70.7397,0.8,0.8,0.8
906.087,2475.15,563.416,0.8,0.8,0.8
5525.83,6443.26,1588.35,0.8,0.8,0.8
4006.32,989.054,9.42993,0.8,0.8,0.8
3222.59,7569.31,-68.6035,0.8,0.8,0.8
3720.71,929.309,51.6968,0.8,0.8,0.8
5320.49,4289.74,-13.1226,0.8,0.8,0.8
2904.18,600.15,-47.6379,0.8,0.8,0.8
5214.34,6698.01,167.053,0.8,0.8,0.8
6947.05,665.675,2020.42,0.8,0.8,0.8
5581.25,7291.42,-46.2952,0.8,0.8,0.8
1368.18,2646.87,1176.76,0.8,0.8,0.8
3246.3,3822.31,1215.27,0.8,0.8,0.8
4927.47,311.752,-60.3333,0.8,0.8,0.8
3155.72,4419.43,48.0347,0.8,0.8,0.8
2102.66,5005.31,138.062,0.8,0.8,0.8
511.762,1540.72,-77.0569,0.8,0.8,0.8
7278.77,1007.56,-90.9119,0.8,0.8,0.8
4469.98,5492.29,28.6255,0.8,0.8,0.8
2930.79,5564.59,274.658,0.8,0.8,0.8
241.845,419.922,39.7339,0.8,0.8,0.8
1303.1,5060.34,-19.8669,0.8,0.8,0.8
5388.04,2778.56,-12.9089,0.8,0.8,0.8
6889.13,6477.8,-45.0134,0.8,0.8,0.8
2640.59,6795.14,-40.2527,0.8,0.8,0.8
6136.25,1675.22,-64.4226,0.8,0.8,0.8
3257.44,5307.17,97.1069,0.8,0.8,0.8
716.461,7417.83,-50.2014,0.8,0.8,0.8
4523.53,4786.84,26.9775,0.8,0.8,0.8
5933.49,6054.9,764.679,0.8,0.8,0.8
1658.58,4682.18,31.7078,0.8,0.8,0.8
264.725,1220.6,-51.3611,0.8,0.8,0.8
2565.02,2519.53,21.5759,0.8,0.8,0.8
5229.39,4576.41,83.7097,0.8,0.8,0.8
4713.95,5699.9,32.9285,0.8,0.8,0.8
6445.48,5969.85,4.27246,0.8,0.8,0.8
4857.13,7432.39,-64.6667,0.8,0.8,0.8
4504.95,2214.51,-13.2446,0.8,0.8,0.8
5450.66,6631.24,848.022,0.8,0.8,0.8
6513.68,7499.59,-77.6978,0.8,0.8,0.8
6834.47,6108.41,27.8931,0.8,0.8,0.8
2435.27,4291.13,7.84302,0.8,0.8,0.8
1478.03,1991.46,-28.9001,0.8,0.8,0.8
6741.01,6602.92,-42.511,0.8,0.8,0.8
3042.16,5446.88,304.962,0.8,0.8,0.8
3369.69,2035.99,13.0615,0.8,0.8,0.8
3887.09,670.783,-31.0059,0.8,0.8,0.8
3078.73,2149.35,8.91113,0.8,0.8,0.8
1647.7,3219.31,992.584,0.8,0.8,0.8
6358.57,4705.21,-43.396,0.8,0.8,0.8
7102.85,3405.75,-31.7383,0.8,0.8,0.8
746.029,5721.48,27.1606,0.8,0.8,0.8
6293.1,930.166,-114.685,0.8,0.8,0.8
4696.62,23.3598,-136.017,0.8,0.8,0.8
2592.52,3716.56,1389.01,0.8,0.8,0.8
1422.98,2392.09,549.53,0.8,0.8,0.8
631.039,387.992,59.8145,0.8,0.8,0.8
610.135,2310.85,-23.9258,0.8,0.8,0.8
3675.75,6471.44,-21.9116,0.8,0.8,0.8
764.838,6716.06,-52.6123,0.8,0.8,0.8
6693.77,437.572,23.1018,0.8,0.8,0.8
3355.28,3753.28,1292.66,0.8,0.8,0.8
404.533,1957.07,119.598,0.8,0.8,0.8
6247.77,3602.06,-44.5251,0.8,0.8,0.8
3914.27,5079.84,17.4255,0.8,0.8,0.8
259.786,1290.14,-46.9055,0.8,0.8,0.8
3484.27,3034.79,20.874,0.8,0.8,0.8
6473.83,4838.59,34.1187,0.8,0.8,0.8
6615.46,236.69,-126.892,0.8,0.8,0.8
4329.01,5693.62,616.18,0.8,0.8,0.8
5626.22,6253.79,1756.96,0.8,0.8,0.8
4997.81,5826.81,143.707,0.8,0.8,0.8
4898.37,7332.97,-20.1111,0.8,0.8,0.8
1804.55,6906.7,-40.741,0.8,0.8,0.8
2693.23,1353.73,204.163,0.8,0.8,0.8
117.631,6824.1,-44.5862,0.8,0.8,0.8
5682.53,6184.13,1460.85,0.8,0.8,0.8
5906.74,7600.78,-63.1409,0.8,0.8,0.8
546.567,2362.05,-22.1863,0.8,0.8,0.8
3663.87,5797.27,111.969,0.8,0.8,0.8
4156.44,463.21,-65.2771,0.8,0.8,0.8
4989.7,1128.6,-9.97925,0.8,0.8,0.8
6769.33,768.712,1708.25,0.8,0.8,0.8
6031.37,6493.67,835.571,0.8,0.8,0.8
7007.89,532.906,698.883,0.8,0.8,0.8
390.768,604.625,42.8467,0.8,0.8,0.8
4344.11,3631.55,254.852,0.8,0.8,0.8
5308.22,6638.71,437.988,0.8,0.8,0.8
1602.81,6658.35,-70.8313,0.8,0.8,0.8
3814.45,662.684,-4.45557,0.8,0.8,0.8
6550.02,5050.94,-12.3901,0.8,0.8,0.8
354.451,6896.88,-48.4924,0.8,0.8,0.8
1946.69,6658.52,-58.1665,0.8,0.8,0.8
3422.41,4450.83,64.4836,0.8,0.8,0.8
3796.2,4491.22,134.277,0.8,0.8,0.8
5336,1452.03,26.8555,0.8,0.8,0.8
5100.96,1489.31,33.4167,0.8,0.8,0.8
3301.8,6275.62,-24.9634,0.8,0.8,0.8
3453.69,4077.44,1192.54,0.8,0.8,0.8
6081.02,7439.15,-47.1497,0.8,0.8,0.8
6271.8,3449.94,-50.354,0.8,0.8,0.8
5047.94,3051.24,4.21143,0.8,0.8,0.8
6005.86,3822.96,-42.2974,0.8,0.8,0.8
3099.85,3389.55,58.2275,0.8,0.8,0.8
3268.54,4495.15,12.9089,0.8,0.8,0.8
2755.78,2257.64,-2.38037,0.8,0.8,0.8
4630.67,7250.54,-17.5171,0.8,0.8,0.8
591.765,171.562,14.1296,0.8,0.8,0.8
1389.65,2107.22,-28.4424,0.8,0.8,0.8
4458.64,20.5238,-134.186,0.8,0.8,0.8
3787.82,4365.41,491.18,0.8,0.8,0.8
5802.23,1376.1,-68.9392,0.8,0.8,0.8
3547.89,4272.33,687.592,0.8,0.8,0.8
1215.23,1186.77,11.9629,0.8,0.8,0.8
1432.39,2402.23,675.751,0.8,0.8,0.8
3436.43,3620.72,593.17,0.8,0.8,0.8
796.036,7295.96,-51.7883,0.8,0.8,0.8
6496.27,1960.54,-72.8455,0.8,0.8,0.8
5458.9,4984.16,17.7002,0.8,0.8,0.8
4173.31,1261.67,55.9998,0.8,0.8,0.8
7277.56,2913.88,-83.8013,0.8,0.8,0.8
1920.08,-5.43558,-42.9077,0.8,0.8,0.8
3778.07,2692.35,36.0413,0.8,0.8,0.8
5332.32,4516.8,-3.66211,0.8,0.8,0.8
6905.42,3628.58,5.85938,0.8,0.8,0.8
3323.97,5964.27,-3.72315,0.8,0.8,0.8
1674.55,3960.68,30.6091,0.8,0.8,0.8
2252.18,3365.51,452.484,0.8,0.8,0.8
584.82,7183.5,-36.8652,0.8,0.8,0.8
7053.82,3676.64,-37.5061,0.8,0.8,0.8
1114.08,2797.87,669.037,0.8,0.8,0.8
2814.13,3909.09,1421.6,0.8,0.8,0.8
5480.92,4553.73,-16.4795,0.8,0.8,0.8
1396.19,5239.13,-4.76074,0.8,0.8,0.8
2735.26,4016.5,1066.83,0.8,0.8,0.8
3939.06,5829.82,838.104,0.8,0.8,0.8
3802.88,6538.52,-28.2593,0.8,0.8,0.8
5311.13,421.433,-108.765,0.8,0.8,0.8
5147.58,5302.29,3.479,0.8,0.8,0.8
4337.16,4933.93,2.2583,0.8,0.8,0.8
1057.12,3138.01,-29.8157,0.8,0.8,0.8
3152.21,5630.54,336.09,0.8,0.8,0.8
4870.53,3741,-2.50244,0.8,0.8,0.8
4970.99,2250.26,-5.64575,0.8,0.8,0.8
3974.26,6099.78,-5.00488,0.8,0.8,0.8
4085.99,5199.48,24.1699,0.8,0.8,0.8
4821.24,5810.81,361.115,0.8,0.8,0.8
4255.41,107.934,-128.265,0.8,0.8,0.8
6011.43,4675.63,73.3948,0.8,0.8,0.8
5740.92,1553.8,65.2771,0.8,0.8,0.8
5838.62,6276.33,1256.01,0.8,0.8,0.8
5590.87,6269.11,1825.29,0.8,0.8,0.8
6838.44,7234.08,-25.1465,0.8,0.8,0.8
1029.74,2260.78,504.15,0.8,0.8,0.8
928.73,1543.14,74.0662,0.8,0.8,0.8
2423.12,7326.15,-68.0542,0.8,0.8,0.8
4240.11,2541.41,32.135,0.8,0.8,0.8
6322.44,4244.75,-38.0249,0.8,0.8,0.8
5262.01,6025.5,820.587,0.8,0.8,0.8
4386.54,3622.11,349.579,0.8,0.8,0.8
5608.56,5937.51,387.238,0.8,0.8,0.8
5492.5,5889.53,496.613,0.8,0.8,0.8
1477.45,3527.48,-19.9585,0.8,0.8,0.8
6693.68,6638.11,-75.4089,0.8,0.8,0.8
5023.16,2138.9,12.0544,0.8,0.8,0.8
3859.64,5657.34,634.949,0.8,0.8,0.8
5465.6,4660.92,61.0657,0.8,0.8,0.8
1456.52,1424.42,-3.9978,0.8,0.8,0.8
1173.73,2580.05,906.83,0.8,0.8,0.8
3456.47,3673.32,864.319,0.8,0.8,0.8
1118.58,3463.04,-21.5149,0.8,0.8,0.8
4676.61,4266.04,438.324,0.8,0.8,0.8
2348.1,218.661,-54.0161,0.8,0.8,0.8
2678.56,2085.3,45.8679,0.8,0.8,0.8
5929.29,5955.01,91.095,0.8,0.8,0.8
1110.34,2931.27,337.524,0.8,0.8,0.8
1269.77,2481.61,912.659,0.8,0.8,0.8
6825.43,4630.24,-39.1541,0.8,0.8,0.8
2370.58,6575.36,-33.5388,0.8,0.8,0.8
5955.24,6333.4,1164.92,0.8,0.8,0.8
3244.31,3125.7,36.0107,0.8,0.8,0.8
2621.36,1719.31,223.938,0.8,0.8,0.8
7207.29,814.515,-115.845,0.8,0.8,0.8
3711.52,4508.66,74.5239,0.8,0.8,0.8
3808.77,5836.13,619.69,0.8,0.8,0.8
6472.03,802.096,-110.687,0.8,0.8,0.8
6879.55,2320.38,-28.8391,0.8,0.8,0.8
4729.23,7567.22,-49.0723,0.8,0.8,0.8
2328.38,4125.32,55.542,0.8,0.8,0.8
1508.22,3236,963.806,0.8,0.8,0.8
5280.76,1748.52,37.1704,0.8,0.8,0.8
1456.71,2889.26,1200.23,0.8,0.8,0.8
4739.56,3935.92,11.9934,0.8,0.8,0.8
4376.97,3609.03,52.7344,0.8,0.8,0.8
6751.67,5501.48,7.01904,0.8,0.8,0.8
3460.62,5402.31,353.638,0.8,0.8,0.8
555.208,908.922,747.375,0.8,0.8,0.8
5909.32,6448.14,1450.2,0.8,0.8,0.8
2534.78,5095.12,221.313,0.8,0.8,0.8
2265.91,1984.61,7.72095,0.8,0.8,0.8
1028.55,4326.82,-11.9934,0.8,0.8,0.8
7128.99,556.871,1360.17,0.8,0.8,0.8
5846.46,4694.06,50.7813,0.8,0.8,0.8
6863.83,4625.44,-30.4871,0.8,0.8,0.8
2854.61,3246.2,36.0107,0.8,0.8,0.8
1580.11,3446.71,13.9465,0.8,0.8,0.8
894.83,2672.1,373.962,0.8,0.8,0.8
2533.54,1469.94,195.221,0.8,0.8,0.8
1396.35,3350.96,-20.5078,0.8,0.8,0.8
1933.06,5484.45,10.437,0.8,0.8,0.8
2124.49,4151.47,41.3513,0.8,0.8,0.8
4523.45,6061.4,447.876,0.8,0.8,0.8
265.436,272.109,64.7583,0.8,0.8,0.8
6346.32,4317.28,-45.8679,0.8,0.8,0.8
6610.03,2583.69,-43.6401,0.8,0.8,0.8
3547.5,3859.54,1355.07,0.8,0.8,0.8
4589.7,5921.92,818.756,0.8,0.8,0.8
3600.8,1191.3,32.5012,0.8,0.8,0.8
5943.75,4227.02,-99.5178,0.8,0.8,0.8
212.515,1291.73,-48.8281,0.8,0.8,0.8
1715.29,4217.81,31.8604,0.8,0.8,0.8
5180.23,6192.16,1186.13,0.8,0.8,0.8
1853.46,2937.25,1131.23,0.8,0.8,0.8
7073.08,1120.61,137.756,0.8,0.8,0.8
1850.29,6632.23,-52.2156,0.8,0.8,0.8
2270.37,7191.64,-77.9419,0.8,0.8,0.8
6327.55,3163.82,-49.4385,0.8,0.8,0.8
5804.64,4125.9,-50.9949,0.8,0.8,0.8
4534.19,1842.56,66.2231,0.8,0.8,0.8
4052,3163.84,43.3655,0.8,0.8,0.8
912.531,1174.05,-17.9749,0.8,0.8,0.8
3907.72,5661.52,895.874,0.8,0.8,0.8
6051.24,2202.18,-66.1926,0.8,0.8,0.8
3779.68,3539.96,312.653,0.8,0.8,0.8
6646.98,536.021,-88.8977,0.8,0.8,0.8
2486.8,1728.4,150.116,0.8,0.8,0.8
3875.98,4488.23,467.133,0.8,0.8,0.8
6410.24,2726.28,-43.335,0.8,0.8,0.8
2965.52,3697.49,1454.93,0.8,0.8,0.8
1008.45,3931.48,-14.7705,0.8,0.8,0.8
5335.34,5843.76,631.683,0.8,0.8,0.8
5508.89,2641.04,-50.7813,0.8,0.8,0.8
4905.43,1288.82,33.2947,0.8,0.8,0.8
139.165,875.24,-2.47192,0.8,0.8,0.8
1025.29,2411.07,995.422,0.8,0.8,0.8
4591.7,5760.97,530.121,0.8,0.8,0.8
3321.26,3931.54,1286.83,0.8,0.8,0.8
966.539,7595.49,-53.1921,0.8,0.8,0.8
2570.66,6255.51,-13.5193,0.8,0.8,0.8
48.9479,3443.88,-18.158,0.8,0.8,0.8
3093.07,3471.17,511.566,0.8,0.8,0.8
508.024,4984.82,-19.3481,0.8,0.8,0.8
6378.23,4126.87,-13.1531,0.8,0.8,0.8
2559.48,6802.69,-23.7427,0.8,0.8,0.8
2511.82,3890.26,1028.08,0.8,0.8,0.8
804.325,2102.28,222.046,0.8,0.8,0.8
4612.38,2501.52,3.08227,0.8,0.8,0.8
2613.61,1316.06,225.616,0.8,0.8,0.8
18.5851,88.1104,-9.12476,0.8,0.8,0.8
3347.14,7347.63,-79.7119,0.8,0.8,0.8
6774.19,2945.18,-28.595,0.8,0.8,0.8
820.647,5778.5,9.79614,0.8,0.8,0.8
4034.84,4538.52,59.2957,0.8,0.8,0.8
4667.26,4166.17,182.922,0.8,0.8,0.8
5215.88,4409.11,-4.36401,0.8,0.8,0.8
3900.59,5869.82,272.186,0.8,0.8,0.8
5987.37,5969.73,78.6743,0.8,0.8,0.8
6860.09,2598.85,-59.7534,0.8,0.8,0.8
6855.48,637.029,1450.38,0.8,0.8,0.8
3570.63,7163.83,-75.5005,0.8,0.8,0.8
6936.03,4402.93,11.6272,0.8,0.8,0.8
5417.86,6762.31,161.011,0.8,0.8,0.8
7001.27,774.588,272.705,0.8,0.8,0.8
6565.43,3995.69,-43.5791,0.8,0.8,0.8
3639.72,82.4847,-127.594,0.8,0.8,0.8
3550.53,5433.04,164.978,0.8,0.8,0.8
2577.6,7016.24,-84.8694,0.8,0.8,0.8
4384.81,1355.2,49.9268,0.8,0.8,0.8
6641.7,2625.73,-50.1404,0.8,0.8,0.8
3096.28,3041.31,45.929,0.8,0.8,0.8
4418.36,4524.92,473.724,0.8,0.8,0.8
3952.59,873.671,41.4734,0.8,0.8,0.8
2183.29,6218,-38.3301,0.8,0.8,0.8
3668.26,4309.08,653.381,0.8,0.8,0.8
3585.92,7279.77,-56.7932,0.8,0.8,0.8
2686.03,326.74,-67.5049,0.8,0.8,0.8
5618.4,6138.28,1005.25,0.8,0.8,0.8
1493.64,2542.14,976.135,0.8,0.8,0.8
6531.3,194.098,-124.603,0.8,0.8,0.8
285.75,50.9745,35.2173,0.8,0.8,0.8
1692.81,6576.15,-72.876,0.8,0.8,0.8
5639.46,6604.25,840.393,0.8,0.8,0.8
2409.75,3490.63,673.95,0.8,0.8,0.8
6858.9,2264.27,-39.5508,0.8,0.8,0.8
2693.26,2366.73,-0.244141,0.8,0.8,0.8
2896.39,4920.01,4.76074,0.8,0.8,0.8
3344.33,1185.18,62.439,0.8,0.8,0.8
6493.04,5604.62,-10.498,0.8,0.8,0.8
7321.4,1893.53,-105.316,0.8,0.8,0.8
1133.22,489.447,3.72315,0.8,0.8,0.8
4864.75,4002.13,-13.3972,0.8,0.8,0.8
1779.06,2239.41,-21.0876,0.8,0.8,0.8
2763.5,5512.01,145.325,0.8,0.8,0.8
3452.38,1051.88,19.6533,0.8,0.8,0.8
4993.96,3078.27,36.0718,0.8,0.8,0.8
2428.54,6033.31,-26.4893,0.8,0.8,0.8
3789.95,6712.73,-51.9409,0.8,0.8,0.8
1640.15,3284.05,735.901,0.8,0.8,0.8
5820.75,6410.54,1032.81,0.8,0.8,0.8
6866.78,695.903,1216.22,0.8,0.8,0.8
1355.32,3683.07,-1.46484,0.8,0.8,0.8
2859.98,3527.21,776.855,0.8,0.8,0.8
3011.66,2666.88,38.5742,0.8,0.8,0.8
2202.89,303.35,-50.5066,0.8,0.8,0.8
965.694,6261.36,-14.5264,0.8,0.8,0.8
3105.23,4888.19,-32.7759,0.8,0.8,0.8
2424.37,2943.6,41.0767,0.8,0.8,0.8
2450.93,910.482,-11.1084,0.8,0.8,0.8
2637.07,6227.42,-19.2261,0.8,0.8,0.8
6746.51,4311.78,-11.4136,0.8,0.8,0.8
978.086,6081.7,-20.4163,0.8,0.8,0.8
198.191,4227.21,-26.3367,0.8,0.8,0.8
2932.14,3948.4,1314.91,0.8,0.8,0.8
6718.14,3945.63,4.82178,0.8,0.8,0.8
6933.8,645.652,1759.19,0.8,0.8,0.8
5367.04,5678.21,-2.34985,0.8,0.8,0.8
7116.34,1237.01,-97.6563,0.8,0.8,0.8
5781.8,2939.63,-43.1824,0.8,0.8,0.8
5921.96,2967.32,-79.5898,0.8,0.8,0.8
4090.37,3080.27,36.9568,0.8,0.8,0.8
5116.12,4356.29,-20.9961,0.8,0.8,0.8
4439.3,3163.38,35.7056,0.8,0.8,0.8
391.836,6596.76,-25.2991,0.8,0.8,0.8
7246,2393.05,-92.8955,0.8,0.8,0.8
6373.63,4746.83,-32.2876,0.8,0.8,0.8
3890.71,3020.24,55.1453,0.8,0.8,0.8
4648.61,4269.61,160.767,0.8,0.8,0.8
399.964,4071.41,-18.2495,0.8,0.8,0.8
3205.1,3539.49,714.874,0.8,0.8,0.8
1713.73,367.172,-22.3999,0.8,0.8,0.8
1858.79,2808.69,807.129,0.8,0.8,0.8
6671.52,6327.75,-32.135,0.8,0.8,0.8
6721.83,778.797,283.356,0.8,0.8,0.8
3352.64,3878.52,1411.32,0.8,0.8,0.8
824.869,1193.93,-25.6653,0.8,0.8,0.8
2335.26,5051.83,191.986,0.8,0.8,0.8
2985.46,7266.15,-54.7485,0.8,0.8,0.8
329.736,5883.72,-37.6892,0.8,0.8,0.8
5472.69,6260.72,1707.4,0.8,0.8,0.8
610.447,924.092,630.096,0.8,0.8,0.8
3238.32,1979.66,67.1387,0.8,0.8,0.8
1972.47,2954.94,850.037,0.8,0.8,0.8
2074.76,5366.88,3.63159,0.8,0.8,0.8
6217.63,3094.29,-52.948,0.8,0.8,0.8
1226.21,2334.51,1104.89,0.8,0.8,0.8
6838.06,4365.08,-29.3274,0.8,0.8,0.8
1017.12,2372.89,1276.09,0.8,0.8,0.8
749.649,4517.56,-26.0315,0.8,0.8,0.8
5364.81,1624.05,36.5295,0.8,0.8,0.8
4453.22,713.883,26.5503,0.8,0.8,0.8
3651.27,2620.78,34.1187,0.8,0.8,0.8
4055.06,4310.48,698.12,0.8,0.8,0.8
1323.11,3845.55,13.9465,0.8,0.8,0.8
861.48,606.886,2.99072,0.8,0.8,0.8
2958.23,609.418,62.0117,0.8,0.8,0.8
6804.7,6989.6,-69.1833,0.8,0.8,0.8
4480.7,2643.34,12.97,0.8,0.8,0.8
505.25,1813.43,-86.3342,0.8,0.8,0.8
1243.27,824.925,0.061035,0.8,0.8,0.8
7145.35,5247.76,-62.2864,0.8,0.8,0.8
6314.53,7722.95,-59.6924,0.8,0.8,0.8
3333.49,7156.26,-54.5959,0.8,0.8,0.8
3509.93,7265.1,-75.2258,0.8,0.8,0.8
6156.16,1977.47,-51.5747,0.8,0.8,0.8
3818.36,4687.17,17.4561,0.8,0.8,0.8
2699.45,203.257,43.0908,0.8,0.8,0.8
4383.54,2276.36,-2.71606,0.8,0.8,0.8
2647.96,4147.53,653.381,0.8,0.8,0.8
2580.56,6107.52,-13.5803,0.8,0.8,0.8
6806.47,690.722,2185.46,0.8,0.8,0.8
2836.4,6393.09,-13.8245,0.8,0.8,0.8
3573.63,3864.22,1176.94,0.8,0.8,0.8
1983.59,4706.27,71.8689,0.8,0.8,0.8
6525.24,5783.4,10.6506,0.8,0.8,0.8
4340.17,4076.87,826.05,0.8,0.8,0.8
4836.47,6259.7,402.405,0.8,0.8,0.8
4304.75,5535.41,43.457,0.8,0.8,0.8
2991.8,5689.89,26.3062,0.8,0.8,0.8
4460.63,6961.78,-37.262,0.8,0.8,0.8
5010.55,6796.61,-37.7502,0.8,0.8,0.8
5913.52,6366.61,1395.69,0.8,0.8,0.8
1917.47,1205.16,-28.2898,0.8,0.8,0.8
5730.77,5235.21,-2.01416,0.8,0.8,0.8
2072.25,2841.05,10.9558,0.8,0.8,0.8
659.739,4316.86,-25.7263,0.8,0.8,0.8
211.007,2223.56,-27.3743,0.8,0.8,0.8
1725.64,2969.91,1182.22,0.8,0.8,0.8
5667.24,6295.69,1843.54,0.8,0.8,0.8
3788.01,5899.13,-48.7061,0.8,0.8,0.8
3495.16,4255.55,1110.99,0.8,0.8,0.8
7131.75,447.644,186.31,0.8,0.8,0.8
6908.42,721.171,1020.36,0.8,0.8,0.8
6223.31,1675.61,-82.8857,0.8,0.8,0.8
4093.19,7291.43,-48.2483,0.8,0.8,0.8
504.376,1926.85,1.37329,0.8,0.8,0.8
4168.83,4046.64,952.881,0.8,0.8,0.8
5124.36,3797.09,-20.874,0.8,0.8,0.8
6771.41,2085.64,-75.8667,0.8,0.8,0.8
4641.54,1812.94,61.615,0.8,0.8,0.8
2987.65,3457.13,432.19,0.8,0.8,0.8
2129.87,5751.64,-6.13403,0.8,0.8,0.8
417.872,4895.75,-29.5715,0.8,0.8,0.8
4811.86,2645.19,3.26538,0.8,0.8,0.8
2327.18,5887.76,-21.759,0.8,0.8,0.8
5220,1960.83,45.0134,0.8,0.8,0.8
7316.84,2126.2,-103.516,0.8,0.8,0.8
3744.42,420.997,-69.4275,0.8,0.8,0.8
3426.6,3734.92,976.196,0.8,0.8,0.8
3236.18,295.615,-105.713,0.8,0.8,0.8
