x,y,z,r,g,b
59.142200,75.753899,1.563500,0.8,0.8,0.8
55.367001,79.480400,-0.101200,0.8,0.8,0.8
52.938000,74.132401,6.638500,0.8,0.8,0.8
51.512299,72.516998,2.877100,0.8,0.8,0.8
51.150799,84.829697,-0.013900,0.8,0.8,0.8
52.446400,80.565399,3.080400,0.8,0.8,0.8
46.743900,70.626297,3.726900,0.8,0.8,0.8
49.939499,77.392899,0.609600,0.8,0.8,0.8
53.339699,71.761597,5.246700,0.8,0.8,0.8
56.351002,73.353996,4.180200,0.8,0.8,0.8
45.509701,77.462196,8.112300,0.8,0.8,0.8
51.611599,76.754601,7.901000,0.8,0.8,0.8
54.450199,74.698196,-1.299700,0.8,0.8,0.8
52.072899,71.128197,2.851600,0.8,0.8,0.8
51.472198,83.746902,1.445600,0.8,0.8,0.8
47.068298,73.111504,4.439600,0.8,0.8,0.8
46.448002,71.585297,7.927600,0.8,0.8,0.8
48.503300,73.587898,8.208000,0.8,0.8,0.8
58.685600,76.612000,0.704200,0.8,0.8,0.8
46.448399,71.564499,5.915100,0.8,0.8,0.8
55.259602,72.447403,1.567900,0.8,0.8,0.8
49.109001,76.663902,4.505700,0.8,0.8,0.8
51.448299,77.843201,-1.195400,0.8,0.8,0.8
51.304298,77.803596,3.055800,0.8,0.8,0.8
54.239700,74.407204,-1.037600,0.8,0.8,0.8
52.858200,78.261398,2.676400,0.8,0.8,0.8
47.048401,76.722900,8.229300,0.8,0.8,0.8
52.183399,78.060600,1.643700,0.8,0.8,0.8
57.332199,82.289803,2.265200,0.8,0.8,0.8
46.509499,71.397003,0.285400,0.8,0.8,0.8
58.206600,79.236099,0.071900,0.8,0.8,0.8
45.484001,74.544296,-1.154800,0.8,0.8,0.8
49.008701,77.114502,0.112400,0.8,0.8,0.8
51.350601,71.536301,-1.301500,0.8,0.8,0.8
51.997799,72.296303,8.725700,0.8,0.8,0.8
54.304199,81.266701,3.644600,0.8,0.8,0.8
46.518600,73.094704,4.443600,0.8,0.8,0.8
56.634300,75.052002,0.812100,0.8,0.8,0.8
49.187698,70.626198,8.650800,0.8,0.8,0.8
52.029800,71.275299,2.404700,0.8,0.8,0.8
51.500301,71.217201,1.494000,0.8,0.8,0.8
49.295300,71.373299,-1.300300,0.8,0.8,0.8
52.167198,75.977798,-1.289600,0.8,0.8,0.8
45.451500,74.693497,2.413800,0.8,0.8,0.8
54.950100,73.017097,2.554700,0.8,0.8,0.8
51.458000,74.702202,1.946700,0.8,0.8,0.8
45.228802,75.352303,7.268700,0.8,0.8,0.8
46.428200,76.341003,-0.804200,0.8,0.8,0.8
47.351002,73.384499,8.733400,0.8,0.8,0.8
51.183899,71.029503,0.881200,0.8,0.8,0.8
57.174599,78.721298,3.944100,0.8,0.8,0.8
54.801399,74.445702,-0.560400,0.8,0.8,0.8
54.114700,77.074203,4.120100,0.8,0.8,0.8
52.725498,75.988297,4.190500,0.8,0.8,0.8
46.360401,75.394402,3.289500,0.8,0.8,0.8
53.366901,80.212700,-1.288000,0.8,0.8,0.8
46.623798,71.313698,3.371700,0.8,0.8,0.8
57.662800,76.803299,-1.294200,0.8,0.8,0.8
46.562401,71.171097,3.635300,0.8,0.8,0.8
54.229698,73.049896,4.769300,0.8,0.8,0.8
59.814999,73.951897,2.327400,0.8,0.8,0.8
45.440899,74.656403,0.976000,0.8,0.8,0.8
46.474998,72.135300,4.824400,0.8,0.8,0.8
52.794102,75.988899,4.482900,0.8,0.8,0.8
46.936600,73.324600,4.359600,0.8,0.8,0.8
49.686100,73.512100,-1.296700,0.8,0.8,0.8
51.294998,84.338997,-1.026300,0.8,0.8,0.8
52.448799,74.564499,2.202400,0.8,0.8,0.8
51.508801,70.612999,4.125300,0.8,0.8,0.8
49.984798,75.453003,1.393400,0.8,0.8,0.8
49.010799,70.454399,5.612500,0.8,0.8,0.8
52.563599,80.191597,-1.228700,0.8,0.8,0.8
46.455399,72.767700,7.091700,0.8,0.8,0.8
52.575100,78.149498,0.568000,0.8,0.8,0.8
59.204899,73.530296,0.916200,0.8,0.8,0.8
54.215000,71.774300,0.817800,0.8,0.8,0.8
57.415798,81.306297,3.733900,0.8,0.8,0.8
48.704601,75.150803,-0.824300,0.8,0.8,0.8
57.780399,80.618500,1.167800,0.8,0.8,0.8
52.308899,74.085800,-1.303900,0.8,0.8,0.8
47.816101,70.081299,0.252600,0.8,0.8,0.8
47.081100,76.680901,6.097700,0.8,0.8,0.8
57.390499,81.147003,3.762000,0.8,0.8,0.8
46.936501,72.617897,-1.294700,0.8,0.8,0.8
56.207401,77.496300,4.152800,0.8,0.8,0.8
51.475601,74.297997,4.602000,0.8,0.8,0.8
48.419701,76.936897,2.322100,0.8,0.8,0.8
46.243500,75.512703,3.200200,0.8,0.8,0.8
58.225101,79.171097,2.300300,0.8,0.8,0.8
45.870098,73.372002,0.318700,0.8,0.8,0.8
48.339001,76.335197,3.867800,0.8,0.8,0.8
47.730900,70.056198,0.709700,0.8,0.8,0.8
54.025700,71.433502,3.825300,0.8,0.8,0.8
46.858700,73.392700,3.734200,0.8,0.8,0.8
50.158501,76.695900,5.076500,0.8,0.8,0.8
48.162998,75.616302,3.660400,0.8,0.8,0.8
53.568699,75.051697,4.187900,0.8,0.8,0.8
59.519798,74.482498,1.141900,0.8,0.8,0.8
55.243999,81.822304,3.610500,0.8,0.8,0.8
53.851398,73.116402,6.933400,0.8,0.8,0.8
53.383202,78.660500,-1.290200,0.8,0.8,0.8
50.511200,70.823997,0.942200,0.8,0.8,0.8
52.379101,74.806801,3.984500,0.8,0.8,0.8
49.327999,75.378197,-1.294500,0.8,0.8,0.8
47.539799,71.315598,-0.423200,0.8,0.8,0.8
50.271301,76.498398,5.069500,0.8,0.8,0.8
47.374500,69.948303,-0.878000,0.8,0.8,0.8
51.900101,82.341904,-1.003900,0.8,0.8,0.8
54.712299,82.257896,0.715300,0.8,0.8,0.8
46.886700,70.200500,5.359000,0.8,0.8,0.8
53.209599,78.658203,-1.290000,0.8,0.8,0.8
49.285599,75.253799,1.783600,0.8,0.8,0.8
51.921700,72.726997,-0.601100,0.8,0.8,0.8
59.386398,73.588402,3.152300,0.8,0.8,0.8
52.123901,71.624603,-0.473800,0.8,0.8,0.8
46.403301,76.325203,2.419500,0.8,0.8,0.8
55.175499,72.424103,1.774200,0.8,0.8,0.8
49.807301,77.347298,4.360600,0.8,0.8,0.8
52.764702,74.308998,6.968500,0.8,0.8,0.8
45.215698,75.397697,3.202800,0.8,0.8,0.8
51.709000,87.185097,3.035900,0.8,0.8,0.8
53.860699,77.568298,3.961400,0.8,0.8,0.8
52.259602,81.878197,-1.284400,0.8,0.8,0.8
57.448898,79.507500,3.892700,0.8,0.8,0.8
58.563900,78.000000,4.300200,0.8,0.8,0.8
47.322701,70.044098,2.682600,0.8,0.8,0.8
54.112999,81.858299,3.580700,0.8,0.8,0.8
52.432999,71.495003,5.637600,0.8,0.8,0.8
55.095299,74.521500,-0.072100,0.8,0.8,0.8
54.944901,82.336601,2.290300,0.8,0.8,0.8
53.122799,72.873596,5.459200,0.8,0.8,0.8
55.142502,73.499100,0.357100,0.8,0.8,0.8
49.360901,75.868301,4.536300,0.8,0.8,0.8
52.054901,82.083099,3.514600,0.8,0.8,0.8
50.815899,77.180603,8.730000,0.8,0.8,0.8
54.052299,80.758797,3.688700,0.8,0.8,0.8
50.038200,75.889198,5.817700,0.8,0.8,0.8
53.635101,75.678200,-1.288400,0.8,0.8,0.8
59.764099,74.103203,2.385900,0.8,0.8,0.8
48.398499,76.500999,3.661200,0.8,0.8,0.8
55.173401,82.414803,2.681900,0.8,0.8,0.8
55.512501,80.594002,3.741000,0.8,0.8,0.8
49.235298,77.186203,2.428300,0.8,0.8,0.8
53.444401,71.467400,-0.781100,0.8,0.8,0.8
46.656799,70.919502,-0.176400,0.8,0.8,0.8
47.639301,72.923599,-1.296900,0.8,0.8,0.8
58.780300,77.324501,2.284700,0.8,0.8,0.8
51.598598,77.261002,4.709500,0.8,0.8,0.8
55.533199,72.095398,4.483300,0.8,0.8,0.8
53.105000,82.363602,3.511500,0.8,0.8,0.8
54.277100,72.161697,4.922400,0.8,0.8,0.8
46.863701,70.263298,8.250200,0.8,0.8,0.8
52.135300,81.764099,-1.284900,0.8,0.8,0.8
48.818001,75.268501,-1.290700,0.8,0.8,0.8
54.531700,76.531197,-1.288800,0.8,0.8,0.8
51.638401,71.355698,0.423300,0.8,0.8,0.8
52.432499,74.619301,2.138900,0.8,0.8,0.8
53.233898,83.083900,-1.281100,0.8,0.8,0.8
54.571098,76.607002,4.118900,0.8,0.8,0.8
52.525902,80.306999,2.382800,0.8,0.8,0.8
52.747898,76.085403,4.773900,0.8,0.8,0.8
55.274899,73.912903,-0.137500,0.8,0.8,0.8
50.931702,71.062599,4.575100,0.8,0.8,0.8
55.672298,82.587799,-0.036500,0.8,0.8,0.8
46.443802,72.847603,5.573900,0.8,0.8,0.8
48.129601,70.180603,4.477500,0.8,0.8,0.8
50.542900,75.405602,-1.295800,0.8,0.8,0.8
59.234001,75.364799,0.786700,0.8,0.8,0.8
53.996201,72.977203,7.085300,0.8,0.8,0.8
55.337299,82.479202,3.605500,0.8,0.8,0.8
46.537102,75.101601,-1.287400,0.8,0.8,0.8
59.514500,73.624199,1.001300,0.8,0.8,0.8
59.838001,73.835999,0.640500,0.8,0.8,0.8
55.412498,80.531601,-0.177400,0.8,0.8,0.8
51.694801,83.011902,1.972600,0.8,0.8,0.8
58.703499,77.517303,0.504600,0.8,0.8,0.8
51.287800,74.649002,1.945700,0.8,0.8,0.8
46.635601,73.149498,8.377400,0.8,0.8,0.8
46.953499,69.983398,5.146600,0.8,0.8,0.8
46.373501,71.238197,-0.604200,0.8,0.8,0.8
58.168598,76.564301,-1.296400,0.8,0.8,0.8
53.118099,78.348999,-1.019800,0.8,0.8,0.8
59.464699,73.612801,2.992700,0.8,0.8,0.8
52.492199,82.226700,3.512100,0.8,0.8,0.8
54.653400,77.150002,-1.289600,0.8,0.8,0.8
51.185398,77.768097,3.204300,0.8,0.8,0.8
54.853298,72.334503,8.372500,0.8,0.8,0.8
48.537601,76.973602,2.137200,0.8,0.8,0.8
59.004101,76.194298,1.666700,0.8,0.8,0.8
54.956299,72.209297,7.800300,0.8,0.8,0.8
50.003601,74.353996,1.644800,0.8,0.8,0.8
51.893398,75.028297,1.493600,0.8,0.8,0.8
52.567699,78.175102,2.620000,0.8,0.8,0.8
51.046101,75.741997,-1.297100,0.8,0.8,0.8
46.878201,70.460701,1.791100,0.8,0.8,0.8
52.911598,75.736000,-1.288800,0.8,0.8,0.8
51.250500,76.694801,1.431700,0.8,0.8,0.8
52.768398,79.718300,3.760700,0.8,0.8,0.8
49.164700,75.376701,3.325100,0.8,0.8,0.8
45.250099,75.276497,-0.933700,0.8,0.8,0.8
48.727501,70.237801,8.335300,0.8,0.8,0.8
49.750099,77.334503,-1.046800,0.8,0.8,0.8
59.185299,75.970299,4.349600,0.8,0.8,0.8
59.089001,75.845299,-0.786300,0.8,0.8,0.8
55.150299,74.685097,-0.780800,0.8,0.8,0.8
57.033699,82.300598,3.162800,0.8,0.8,0.8
57.158501,77.533203,-0.989500,0.8,0.8,0.8
50.066200,70.271004,4.109500,0.8,0.8,0.8
55.023102,71.869003,4.326900,0.8,0.8,0.8
46.342999,71.893501,4.357900,0.8,0.8,0.8
48.676498,69.902603,3.269800,0.8,0.8,0.8
50.442501,74.404404,1.990000,0.8,0.8,0.8
53.969799,71.590103,4.586900,0.8,0.8,0.8
51.051399,72.838097,8.722300,0.8,0.8,0.8
48.825901,75.267403,-0.710000,0.8,0.8,0.8
58.829300,76.826401,4.324100,0.8,0.8,0.8
54.380402,77.403297,-1.292000,0.8,0.8,0.8
58.951401,76.832703,0.963500,0.8,0.8,0.8
57.787201,80.641403,-0.367000,0.8,0.8,0.8
46.390202,71.187698,-0.531000,0.8,0.8,0.8
59.515301,73.623802,0.928100,0.8,0.8,0.8
48.671501,73.958900,8.722200,0.8,0.8,0.8
46.881302,71.274597,8.716500,0.8,0.8,0.8
56.680401,77.973000,-0.421000,0.8,0.8,0.8
49.873100,72.495697,8.716400,0.8,0.8,0.8
51.526600,71.336403,7.607700,0.8,0.8,0.8
45.957802,73.106697,0.038600,0.8,0.8,0.8
55.709599,76.091301,4.116100,0.8,0.8,0.8
54.153702,72.068100,4.574500,0.8,0.8,0.8
51.802399,77.951500,2.694000,0.8,0.8,0.8
55.975700,72.716400,-0.849100,0.8,0.8,0.8
57.232300,78.558098,3.951900,0.8,0.8,0.8
52.300301,82.607697,3.472000,0.8,0.8,0.8
45.877499,73.356300,8.368300,0.8,0.8,0.8
45.815201,76.137100,-1.110200,0.8,0.8,0.8
52.002201,83.873398,-1.292400,0.8,0.8,0.8
58.740002,77.447197,2.726100,0.8,0.8,0.8
52.347099,73.318802,8.722000,0.8,0.8,0.8
52.576801,74.598099,2.018900,0.8,0.8,0.8
55.804199,81.113403,3.694700,0.8,0.8,0.8
47.990002,75.534599,-0.036700,0.8,0.8,0.8
55.877998,79.017303,-1.144600,0.8,0.8,0.8
55.585701,74.002502,4.181200,0.8,0.8,0.8
56.868500,82.940002,2.853100,0.8,0.8,0.8
45.277699,75.976303,1.333100,0.8,0.8,0.8
46.598202,71.960701,8.717300,0.8,0.8,0.8
52.302200,81.633904,-1.285800,0.8,0.8,0.8
53.674099,75.642998,4.154900,0.8,0.8,0.8
50.123798,88.482399,0.087000,0.8,0.8,0.8
49.158501,75.551498,0.689500,0.8,0.8,0.8
48.707100,69.813202,0.425600,0.8,0.8,0.8
52.889801,78.267601,1.215100,0.8,0.8,0.8
46.155602,72.471001,4.827900,0.8,0.8,0.8
47.181301,76.134598,3.085300,0.8,0.8,0.8
57.547001,75.668404,-1.297700,0.8,0.8,0.8
53.380901,73.690102,6.168500,0.8,0.8,0.8
55.205101,72.431099,3.056700,0.8,0.8,0.8
56.694401,73.850197,4.152500,0.8,0.8,0.8
53.323799,80.754601,3.674500,0.8,0.8,0.8
56.778702,78.374901,-0.228100,0.8,0.8,0.8
51.242699,88.824303,0.605700,0.8,0.8,0.8
45.162300,75.542702,-0.792900,0.8,0.8,0.8
53.042599,78.587700,-0.929200,0.8,0.8,0.8
49.950401,76.536201,4.907300,0.8,0.8,0.8
48.721199,75.352303,0.858000,0.8,0.8,0.8
56.082298,79.420998,3.869600,0.8,0.8,0.8
55.807201,78.992798,-0.615800,0.8,0.8,0.8
48.666100,69.927498,1.418200,0.8,0.8,0.8
49.377800,74.068901,2.952800,0.8,0.8,0.8
47.451401,69.971497,2.163400,0.8,0.8,0.8
46.837898,75.349098,3.295900,0.8,0.8,0.8
46.589699,71.419197,2.471200,0.8,0.8,0.8
45.531101,76.062401,2.259200,0.8,0.8,0.8
58.495701,78.248199,3.193200,0.8,0.8,0.8
56.302399,75.198700,4.119900,0.8,0.8,0.8
56.328602,77.806503,4.172700,0.8,0.8,0.8
56.103802,72.588898,5.388700,0.8,0.8,0.8
45.803799,73.599098,2.073900,0.8,0.8,0.8
49.130199,76.698502,0.901800,0.8,0.8,0.8
55.718899,81.375603,3.669200,0.8,0.8,0.8
50.204300,71.330498,-0.554900,0.8,0.8,0.8
54.858501,72.378502,2.599800,0.8,0.8,0.8
47.338001,69.985703,6.289300,0.8,0.8,0.8
53.036201,77.293999,-1.287400,0.8,0.8,0.8
50.955299,85.436096,-0.720300,0.8,0.8,0.8
59.432400,74.526604,0.007000,0.8,0.8,0.8
53.399899,78.922401,-1.289600,0.8,0.8,0.8
54.957199,82.343498,0.324900,0.8,0.8,0.8
54.822899,73.472000,2.209400,0.8,0.8,0.8
57.023800,80.693604,3.778900,0.8,0.8,0.8
51.007500,71.245102,-0.532700,0.8,0.8,0.8
57.296902,75.685997,-1.297500,0.8,0.8,0.8
57.840500,73.516701,4.143500,0.8,0.8,0.8
58.598999,77.874901,-1.065200,0.8,0.8,0.8
52.762901,78.227898,-1.212100,0.8,0.8,0.8
46.575199,71.164101,4.840700,0.8,0.8,0.8
52.232399,71.430603,5.273000,0.8,0.8,0.8
55.240200,82.436401,3.742700,0.8,0.8,0.8
52.549900,76.544899,4.946700,0.8,0.8,0.8
54.264599,72.841698,7.048400,0.8,0.8,0.8
52.360100,74.881599,1.005400,0.8,0.8,0.8
48.876701,70.836998,8.722400,0.8,0.8,0.8
56.103001,80.036903,-0.245600,0.8,0.8,0.8
53.514099,75.499199,4.168700,0.8,0.8,0.8
51.662998,83.121201,1.911200,0.8,0.8,0.8
49.143799,74.084900,-1.242100,0.8,0.8,0.8
52.903999,75.930603,-1.291900,0.8,0.8,0.8
58.379902,78.632103,3.093100,0.8,0.8,0.8
49.846901,70.345001,4.581500,0.8,0.8,0.8
49.726601,75.797501,5.606500,0.8,0.8,0.8
53.666000,71.437500,8.180800,0.8,0.8,0.8
53.024101,84.758904,3.287700,0.8,0.8,0.8
54.214600,75.231003,4.158900,0.8,0.8,0.8
56.445599,82.843399,2.701100,0.8,0.8,0.8
54.603600,72.878998,5.233900,0.8,0.8,0.8
52.439701,74.582298,7.617700,0.8,0.8,0.8
52.869202,72.560799,8.725300,0.8,0.8,0.8
51.944901,76.121902,4.910500,0.8,0.8,0.8
46.456799,71.890099,1.767000,0.8,0.8,0.8
54.803200,76.535698,-1.291200,0.8,0.8,0.8
55.116199,72.406403,0.744100,0.8,0.8,0.8
47.635300,70.026604,1.281400,0.8,0.8,0.8
54.562099,72.885399,5.303900,0.8,0.8,0.8
52.412701,78.093803,0.594500,0.8,0.8,0.8
54.757999,71.707397,8.020500,0.8,0.8,0.8
48.822399,76.063599,4.183800,0.8,0.8,0.8
56.954498,83.018600,0.477700,0.8,0.8,0.8
58.762901,73.397697,-0.383700,0.8,0.8,0.8
58.830399,77.103500,-0.818700,0.8,0.8,0.8
53.651901,74.243202,-1.304400,0.8,0.8,0.8
52.042801,71.222298,1.708700,0.8,0.8,0.8
48.966900,71.771301,8.720100,0.8,0.8,0.8
53.151501,84.850197,4.983100,0.8,0.8,0.8
57.488400,82.314697,1.360300,0.8,0.8,0.8
53.778198,73.174599,6.979200,0.8,0.8,0.8
48.715199,69.794800,1.305100,0.8,0.8,0.8
58.111401,76.111000,-1.296800,0.8,0.8,0.8
55.423698,72.542198,2.747900,0.8,0.8,0.8
45.372799,76.288200,7.412100,0.8,0.8,0.8
51.092899,88.778702,0.163300,0.8,0.8,0.8
55.949001,72.543198,5.305600,0.8,0.8,0.8
47.068802,76.526802,1.860800,0.8,0.8,0.8
51.439800,83.875099,0.220600,0.8,0.8,0.8
52.746700,74.757896,1.349900,0.8,0.8,0.8
49.272400,70.104401,8.185600,0.8,0.8,0.8
54.887299,76.787003,-1.288100,0.8,0.8,0.8
54.953899,72.253403,5.475200,0.8,0.8,0.8
53.496799,71.805496,5.494900,0.8,0.8,0.8
48.556499,70.172600,7.697100,0.8,0.8,0.8
46.179001,72.689697,1.915500,0.8,0.8,0.8
59.784100,74.034103,1.879400,0.8,0.8,0.8
49.100101,74.025902,8.723900,0.8,0.8,0.8
52.512100,80.350700,2.339500,0.8,0.8,0.8
54.680901,73.884399,4.215700,0.8,0.8,0.8
52.867901,71.523300,0.932400,0.8,0.8,0.8
54.577900,76.144798,4.124700,0.8,0.8,0.8
53.580299,71.317596,4.325800,0.8,0.8,0.8
57.430599,82.092499,3.116600,0.8,0.8,0.8
59.088200,75.960197,2.438300,0.8,0.8,0.8
52.694698,72.460197,8.728000,0.8,0.8,0.8
51.433701,72.429703,2.787600,0.8,0.8,0.8
53.088200,84.234200,3.337600,0.8,0.8,0.8
51.408901,81.966797,0.404700,0.8,0.8,0.8
54.954498,72.086403,1.413800,0.8,0.8,0.8
58.090000,79.642601,1.069800,0.8,0.8,0.8
54.132401,72.347298,8.733500,0.8,0.8,0.8
51.135502,73.144501,8.721200,0.8,0.8,0.8
51.315300,88.851601,0.974500,0.8,0.8,0.8
51.032600,73.719101,-1.302400,0.8,0.8,0.8
52.876701,82.541199,3.492900,0.8,0.8,0.8
51.156898,73.833504,-1.297500,0.8,0.8,0.8
59.515800,73.632896,-0.797100,0.8,0.8,0.8
51.803501,78.067001,5.444800,0.8,0.8,0.8
52.113602,71.397598,5.744600,0.8,0.8,0.8
53.103901,81.821899,3.606500,0.8,0.8,0.8
48.568600,74.581100,-0.922300,0.8,0.8,0.8
51.096001,77.744698,2.692700,0.8,0.8,0.8
47.718601,73.449097,8.421500,0.8,0.8,0.8
49.706600,77.391502,4.687700,0.8,0.8,0.8
46.118599,72.037903,-0.826900,0.8,0.8,0.8
48.912102,69.888496,2.257700,0.8,0.8,0.8
57.153599,74.848999,4.122500,0.8,0.8,0.8
47.200298,75.003700,3.115500,0.8,0.8,0.8
52.708199,74.511398,6.149500,0.8,0.8,0.8
57.930500,75.852600,4.133000,0.8,0.8,0.8
57.626301,81.109398,1.695900,0.8,0.8,0.8
56.954800,82.324997,3.611800,0.8,0.8,0.8
57.067402,78.351997,-0.280800,0.8,0.8,0.8
48.975300,69.940498,4.109700,0.8,0.8,0.8
58.298302,78.905403,0.663900,0.8,0.8,0.8
58.037800,79.784698,0.569600,0.8,0.8,0.8
51.590500,72.365303,2.829200,0.8,0.8,0.8
47.585800,76.229897,0.841400,0.8,0.8,0.8
52.201000,81.349503,1.690400,0.8,0.8,0.8
50.871700,88.708000,-0.058900,0.8,0.8,0.8
47.066002,69.976402,1.562500,0.8,0.8,0.8
46.859699,75.734299,3.286700,0.8,0.8,0.8
50.369999,75.365601,1.513400,0.8,0.8,0.8
52.028702,71.279099,2.251400,0.8,0.8,0.8
51.921101,82.037804,-0.293800,0.8,0.8,0.8
46.518200,76.460899,8.410800,0.8,0.8,0.8
52.500301,77.478600,-1.295700,0.8,0.8,0.8
48.551300,70.357300,1.710500,0.8,0.8,0.8
58.811798,76.827904,1.493700,0.8,0.8,0.8
50.349998,88.552803,0.833500,0.8,0.8,0.8
58.549702,73.331299,2.891800,0.8,0.8,0.8
46.579601,71.438103,2.052900,0.8,0.8,0.8
51.146999,71.221100,8.550100,0.8,0.8,0.8
57.955299,75.935204,4.135700,0.8,0.8,0.8
58.571899,77.983597,1.856900,0.8,0.8,0.8
50.785000,77.644699,1.010900,0.8,0.8,0.8
51.280499,70.697701,4.438900,0.8,0.8,0.8
46.889702,70.225098,0.148400,0.8,0.8,0.8
53.709499,72.095497,8.736700,0.8,0.8,0.8
54.932800,77.307198,4.125800,0.8,0.8,0.8
55.858200,74.371597,4.154900,0.8,0.8,0.8
54.273701,71.792198,-1.094000,0.8,0.8,0.8
51.938900,71.474098,3.420500,0.8,0.8,0.8
54.026402,77.620499,4.115600,0.8,0.8,0.8
47.591801,70.015198,2.285500,0.8,0.8,0.8
52.749100,74.790199,4.453700,0.8,0.8,0.8
57.741699,80.752701,2.311800,0.8,0.8,0.8
53.210899,73.802002,6.702200,0.8,0.8,0.8
59.211800,75.824600,-0.220800,0.8,0.8,0.8
53.972099,81.697601,3.594500,0.8,0.8,0.8
45.638199,74.089798,1.558800,0.8,0.8,0.8
58.911701,76.867599,1.132500,0.8,0.8,0.8
52.096401,85.728104,3.175300,0.8,0.8,0.8
45.507999,72.975502,6.419300,0.8,0.8,0.8
55.764999,73.971703,4.177700,0.8,0.8,0.8
51.354900,70.670502,0.817300,0.8,0.8,0.8
56.131199,76.676903,-1.286700,0.8,0.8,0.8
54.997501,72.371597,7.264300,0.8,0.8,0.8
45.743301,73.697403,2.872900,0.8,0.8,0.8
52.094799,81.691399,1.431000,0.8,0.8,0.8
48.330700,78.104103,8.731500,0.8,0.8,0.8
49.663502,70.291199,8.281100,0.8,0.8,0.8
45.426102,76.331200,8.221700,0.8,0.8,0.8
51.252602,76.105499,-1.303600,0.8,0.8,0.8
47.512901,76.168602,3.453500,0.8,0.8,0.8
55.352001,77.990501,4.142400,0.8,0.8,0.8
46.835602,76.460297,0.810100,0.8,0.8,0.8
57.826801,76.463097,-1.295100,0.8,0.8,0.8
53.441200,74.910500,4.198400,0.8,0.8,0.8
52.844799,71.131104,8.237600,0.8,0.8,0.8
52.102798,81.669296,3.453900,0.8,0.8,0.8
47.745499,75.119202,8.358600,0.8,0.8,0.8
55.022900,71.877098,0.555300,0.8,0.8,0.8
52.162300,81.481598,1.198900,0.8,0.8,0.8
46.631302,71.271500,1.469200,0.8,0.8,0.8
53.763599,74.442902,4.812100,0.8,0.8,0.8
51.814999,82.619797,-1.069500,0.8,0.8,0.8
57.631302,80.087799,3.092200,0.8,0.8,0.8
52.431000,71.609100,4.689500,0.8,0.8,0.8
47.695801,70.044701,1.452600,0.8,0.8,0.8
51.985699,76.263496,-1.296400,0.8,0.8,0.8
58.375000,73.212502,3.501400,0.8,0.8,0.8
58.841099,77.126198,4.599600,0.8,0.8,0.8
51.725101,82.916801,-0.355300,0.8,0.8,0.8
58.281399,78.930603,3.486200,0.8,0.8,0.8
48.679798,77.010696,1.487600,0.8,0.8,0.8
45.355900,76.367897,8.216300,0.8,0.8,0.8
54.920502,72.317299,2.062500,0.8,0.8,0.8
45.395401,74.870102,2.402200,0.8,0.8,0.8
54.062302,73.225899,-0.966700,0.8,0.8,0.8
59.610401,73.857498,-0.009100,0.8,0.8,0.8
58.832802,73.415901,3.141900,0.8,0.8,0.8
58.512798,73.324097,0.144100,0.8,0.8,0.8
47.077599,70.549500,8.717500,0.8,0.8,0.8
46.294701,72.034103,6.123300,0.8,0.8,0.8
54.387100,74.661301,-1.299400,0.8,0.8,0.8
48.704601,75.618599,-1.299100,0.8,0.8,0.8
51.454102,76.184998,8.727200,0.8,0.8,0.8
47.873199,70.517998,8.721400,0.8,0.8,0.8
52.277100,72.098503,-0.238700,0.8,0.8,0.8
56.285999,73.692802,-1.312800,0.8,0.8,0.8
51.954201,72.154800,-1.304400,0.8,0.8,0.8
55.269901,72.450996,2.353400,0.8,0.8,0.8
45.764000,73.238800,7.914200,0.8,0.8,0.8
52.671299,79.811996,3.146700,0.8,0.8,0.8
54.832401,74.278999,4.184800,0.8,0.8,0.8
58.328701,78.805603,3.032100,0.8,0.8,0.8
48.619801,70.107300,2.434800,0.8,0.8,0.8
54.498402,78.209099,3.923700,0.8,0.8,0.8
53.125301,78.417999,-0.165800,0.8,0.8,0.8
51.141998,78.043800,8.228900,0.8,0.8,0.8
46.453098,71.552299,6.663600,0.8,0.8,0.8
56.574299,78.808601,3.930400,0.8,0.8,0.8
46.393600,72.966003,-1.144700,0.8,0.8,0.8
54.835899,82.302101,2.761400,0.8,0.8,0.8
45.511398,73.984596,7.601800,0.8,0.8,0.8
46.737301,70.913002,3.374900,0.8,0.8,0.8
45.206001,75.445702,2.465200,0.8,0.8,0.8
49.378300,75.254501,-1.288800,0.8,0.8,0.8
50.139000,76.990303,1.465300,0.8,0.8,0.8
49.563499,71.622398,-1.304100,0.8,0.8,0.8
54.309299,73.971603,-0.746700,0.8,0.8,0.8
53.914600,71.670403,4.579500,0.8,0.8,0.8
54.925301,73.105698,3.615300,0.8,0.8,0.8
55.431999,79.403297,-0.102100,0.8,0.8,0.8
55.108002,76.434898,-1.298700,0.8,0.8,0.8
55.299400,74.633202,-0.723000,0.8,0.8,0.8
46.057701,76.218597,0.375700,0.8,0.8,0.8
54.470402,79.637901,3.809100,0.8,0.8,0.8
45.351200,73.474098,5.781100,0.8,0.8,0.8
51.797699,73.678802,8.724100,0.8,0.8,0.8
54.852699,73.383003,3.792800,0.8,0.8,0.8
49.952099,70.535004,8.332300,0.8,0.8,0.8
52.966702,78.834602,-1.039500,0.8,0.8,0.8
57.860802,72.613899,4.075300,0.8,0.8,0.8
51.703701,71.386101,5.620800,0.8,0.8,0.8
52.479401,80.436798,-0.497700,0.8,0.8,0.8
49.852299,70.624199,0.992600,0.8,0.8,0.8
57.456402,82.155502,3.118800,0.8,0.8,0.8
55.044498,71.807899,1.380100,0.8,0.8,0.8
55.020802,72.902496,3.111700,0.8,0.8,0.8
51.705399,72.641098,-0.722600,0.8,0.8,0.8
52.514198,74.931801,3.990100,0.8,0.8,0.8
51.246700,88.825699,1.866500,0.8,0.8,0.8
52.638500,72.581100,-0.483400,0.8,0.8,0.8
46.948200,70.025002,1.922900,0.8,0.8,0.8
52.203499,81.342697,2.260400,0.8,0.8,0.8
49.008999,71.624901,8.719800,0.8,0.8,0.8
47.319801,76.601898,2.656400,0.8,0.8,0.8
45.876400,76.166000,2.818500,0.8,0.8,0.8
57.832802,80.426399,3.774100,0.8,0.8,0.8
46.219501,77.936699,8.727300,0.8,0.8,0.8
52.530899,74.584702,1.848500,0.8,0.8,0.8
54.598801,78.994400,3.864800,0.8,0.8,0.8
46.238400,72.702400,8.004200,0.8,0.8,0.8
54.998798,79.883102,3.798900,0.8,0.8,0.8
44.787701,76.715698,8.075800,0.8,0.8,0.8
51.412899,74.096703,8.726800,0.8,0.8,0.8
56.209301,78.629501,-0.249000,0.8,0.8,0.8
53.714802,73.509102,4.734900,0.8,0.8,0.8
51.827202,88.999100,-0.132400,0.8,0.8,0.8
51.243599,77.250099,5.074800,0.8,0.8,0.8
52.965900,73.985001,7.424800,0.8,0.8,0.8
50.850700,71.019997,5.920600,0.8,0.8,0.8
46.402500,72.749397,2.177500,0.8,0.8,0.8
52.862598,71.628601,5.986600,0.8,0.8,0.8
58.895699,76.933197,3.780200,0.8,0.8,0.8
57.286900,77.223701,4.167100,0.8,0.8,0.8
46.848000,70.311302,7.338800,0.8,0.8,0.8
45.406200,76.028198,0.424800,0.8,0.8,0.8
50.635399,76.573097,4.947000,0.8,0.8,0.8
49.484001,70.091400,4.381100,0.8,0.8,0.8
48.923599,73.911903,0.208900,0.8,0.8,0.8
56.954102,78.768097,-0.279700,0.8,0.8,0.8
53.756302,84.077400,4.986900,0.8,0.8,0.8
46.464100,74.471100,-1.285300,0.8,0.8,0.8
56.713100,77.473503,-1.295600,0.8,0.8,0.8
55.415100,74.719498,0.806900,0.8,0.8,0.8
52.123798,78.047302,3.780800,0.8,0.8,0.8
51.508400,83.627197,-0.757300,0.8,0.8,0.8
46.129799,72.561096,4.617100,0.8,0.8,0.8
55.880100,77.001602,-1.285500,0.8,0.8,0.8
58.606400,74.840797,-1.300700,0.8,0.8,0.8
53.528999,81.702003,3.586400,0.8,0.8,0.8
45.518299,76.058403,1.879900,0.8,0.8,0.8
56.389099,75.369003,4.116900,0.8,0.8,0.8
52.911201,74.439102,4.857600,0.8,0.8,0.8
51.892101,71.325104,1.002400,0.8,0.8,0.8
52.728401,73.946404,8.719500,0.8,0.8,0.8
51.764198,71.394699,0.257400,0.8,0.8,0.8
46.125900,72.602997,2.544600,0.8,0.8,0.8
48.007301,73.683197,3.605300,0.8,0.8,0.8
51.940300,71.403099,0.947300,0.8,0.8,0.8
52.654900,79.866203,1.698700,0.8,0.8,0.8
57.789501,72.592400,4.071700,0.8,0.8,0.8
51.409199,77.835899,2.993300,0.8,0.8,0.8
47.031898,73.685997,3.288900,0.8,0.8,0.8
54.099300,76.741898,-1.287300,0.8,0.8,0.8
55.602600,79.215897,-0.441400,0.8,0.8,0.8
51.170200,88.805702,1.569300,0.8,0.8,0.8
52.683800,79.895401,-0.065100,0.8,0.8,0.8
56.988400,75.956398,4.121400,0.8,0.8,0.8
59.223598,75.835602,3.666900,0.8,0.8,0.8
56.479801,78.905296,-0.278600,0.8,0.8,0.8
49.918800,88.370201,0.685700,0.8,0.8,0.8
49.601101,74.155502,-1.151100,0.8,0.8,0.8
57.284000,75.104202,-0.137700,0.8,0.8,0.8
45.878300,73.399498,-1.148600,0.8,0.8,0.8
52.125801,78.045601,2.569500,0.8,0.8,0.8
50.410301,87.202202,1.599800,0.8,0.8,0.8
46.402699,72.980698,8.110800,0.8,0.8,0.8
59.283798,75.252197,1.052300,0.8,0.8,0.8
55.232300,75.688698,4.120700,0.8,0.8,0.8
56.976200,73.443604,4.157800,0.8,0.8,0.8
51.285400,81.933197,-0.768200,0.8,0.8,0.8
48.508801,70.426399,8.720600,0.8,0.8,0.8
53.746300,72.321999,8.731300,0.8,0.8,0.8
46.622601,71.014801,5.212900,0.8,0.8,0.8
51.307598,70.783203,4.530400,0.8,0.8,0.8
58.568401,77.998299,0.073800,0.8,0.8,0.8
55.319401,80.967400,3.697200,0.8,0.8,0.8
47.286499,70.045700,6.925600,0.8,0.8,0.8
52.427898,80.603798,0.568900,0.8,0.8,0.8
45.403702,76.021599,0.142600,0.8,0.8,0.8
47.482399,73.601799,8.726700,0.8,0.8,0.8
46.504002,73.333801,1.946000,0.8,0.8,0.8
54.616199,73.858704,4.216100,0.8,0.8,0.8
53.086601,71.084999,0.425900,0.8,0.8,0.8
52.700298,74.939400,3.141600,0.8,0.8,0.8
53.811699,76.367599,-1.285500,0.8,0.8,0.8
54.791401,76.020699,-1.298900,0.8,0.8,0.8
58.717400,75.492798,4.132200,0.8,0.8,0.8
51.230701,74.678596,8.728100,0.8,0.8,0.8
55.087601,72.403198,5.270100,0.8,0.8,0.8
51.783100,76.418999,5.832600,0.8,0.8,0.8
58.030201,79.767700,3.666200,0.8,0.8,0.8
47.839802,70.093002,5.834600,0.8,0.8,0.8
49.014301,73.137901,8.721500,0.8,0.8,0.8
57.924500,79.001297,3.932600,0.8,0.8,0.8
51.716801,71.782097,2.385800,0.8,0.8,0.8
54.918499,72.190201,3.818900,0.8,0.8,0.8
48.980999,69.849403,0.414500,0.8,0.8,0.8
46.330002,72.731598,8.628300,0.8,0.8,0.8
52.692799,76.208099,4.707900,0.8,0.8,0.8
47.803600,70.078697,2.046400,0.8,0.8,0.8
54.821201,73.585800,4.555200,0.8,0.8,0.8
46.410400,72.966003,5.652600,0.8,0.8,0.8
45.226200,75.390900,2.366700,0.8,0.8,0.8
54.927799,76.056900,4.120600,0.8,0.8,0.8
52.873699,82.614502,-1.282800,0.8,0.8,0.8
59.489498,74.943901,0.395000,0.8,0.8,0.8
46.254398,72.195503,0.262300,0.8,0.8,0.8
58.416302,74.989502,4.123600,0.8,0.8,0.8
56.984798,79.851997,3.856000,0.8,0.8,0.8
52.444500,80.572098,2.529000,0.8,0.8,0.8
58.704800,76.544998,3.899500,0.8,0.8,0.8
55.243301,82.441299,0.916300,0.8,0.8,0.8
59.783199,73.956200,-1.165800,0.8,0.8,0.8
59.176300,75.890701,3.956100,0.8,0.8,0.8
52.572300,74.596901,1.451800,0.8,0.8,0.8
53.930801,77.403801,4.118000,0.8,0.8,0.8
46.969200,76.498299,2.710400,0.8,0.8,0.8
47.334099,69.992798,6.676300,0.8,0.8,0.8
53.978298,71.690002,8.333000,0.8,0.8,0.8
50.800999,74.093399,4.718200,0.8,0.8,0.8
55.127899,72.412498,5.920300,0.8,0.8,0.8
57.835201,80.487000,-0.153900,0.8,0.8,0.8
52.984501,74.297798,5.209700,0.8,0.8,0.8
58.523800,77.967796,4.605100,0.8,0.8,0.8
58.567200,77.999298,2.015900,0.8,0.8,0.8
56.425201,78.486198,-0.249700,0.8,0.8,0.8
58.983002,73.463699,-0.287000,0.8,0.8,0.8
52.797401,76.200600,4.149400,0.8,0.8,0.8
53.436600,74.334900,4.948500,0.8,0.8,0.8
55.513100,73.075500,0.391700,0.8,0.8,0.8
46.358700,76.311096,2.471200,0.8,0.8,0.8
55.644901,73.760597,4.191300,0.8,0.8,0.8
47.994999,70.136299,1.922500,0.8,0.8,0.8
50.807800,76.986900,8.730200,0.8,0.8,0.8
50.904701,71.303001,8.723400,0.8,0.8,0.8
49.674999,71.521698,8.721900,0.8,0.8,0.8
45.567402,74.240799,1.001600,0.8,0.8,0.8
51.435902,71.328903,0.344500,0.8,0.8,0.8
56.579700,76.259102,4.120700,0.8,0.8,0.8
45.779400,76.135399,-0.240200,0.8,0.8,0.8
55.497799,76.107498,4.118100,0.8,0.8,0.8
55.503300,82.525902,3.702900,0.8,0.8,0.8
59.769600,74.086502,1.764300,0.8,0.8,0.8
48.375702,73.832603,2.927300,0.8,0.8,0.8
58.027401,78.724899,4.306000,0.8,0.8,0.8
52.116798,75.564796,5.909900,0.8,0.8,0.8
59.775200,73.829597,2.801900,0.8,0.8,0.8
56.895500,82.992996,3.822600,0.8,0.8,0.8
49.105301,76.778900,-1.136800,0.8,0.8,0.8
59.603600,73.976196,-0.828500,0.8,0.8,0.8
50.026501,77.418701,1.201600,0.8,0.8,0.8
48.080200,76.822197,-1.214500,0.8,0.8,0.8
53.592300,80.125702,3.737900,0.8,0.8,0.8
53.329300,77.707199,-1.290200,0.8,0.8,0.8
53.669399,73.114403,-1.308600,0.8,0.8,0.8
55.936401,78.982300,-1.295700,0.8,0.8,0.8
58.831699,77.152496,4.422800,0.8,0.8,0.8
49.887402,77.377197,1.031100,0.8,0.8,0.8
46.714901,75.596199,8.728400,0.8,0.8,0.8
48.616501,69.984497,7.579300,0.8,0.8,0.8
52.755199,78.228104,2.104600,0.8,0.8,0.8
54.122398,78.570900,3.887400,0.8,0.8,0.8
50.999802,77.717903,2.280600,0.8,0.8,0.8
47.959301,71.279800,-0.612600,0.8,0.8,0.8
56.570499,75.188698,0.812300,0.8,0.8,0.8
55.412300,72.532997,-0.002500,0.8,0.8,0.8
53.950001,78.634903,-1.289900,0.8,0.8,0.8
48.476101,72.651001,8.721900,0.8,0.8,0.8
53.545700,84.853897,2.943200,0.8,0.8,0.8
45.918800,76.177498,2.461100,0.8,0.8,0.8
48.103001,71.518501,-0.524700,0.8,0.8,0.8
51.427200,70.655701,2.236300,0.8,0.8,0.8
45.251801,75.115997,0.603600,0.8,0.8,0.8
46.592701,71.114304,8.021100,0.8,0.8,0.8
58.609100,76.560600,3.864200,0.8,0.8,0.8
45.529800,72.914497,5.972800,0.8,0.8,0.8
58.993401,76.201897,0.953300,0.8,0.8,0.8
47.819599,71.169502,-0.661700,0.8,0.8,0.8
49.735500,71.688599,8.715900,0.8,0.8,0.8
46.724400,70.742500,0.111400,0.8,0.8,0.8
54.990398,80.775803,-0.022100,0.8,0.8,0.8
47.632000,74.847801,-0.369900,0.8,0.8,0.8
58.706600,76.545097,3.260500,0.8,0.8,0.8
54.152100,77.860603,-1.292500,0.8,0.8,0.8
56.773899,75.165001,-1.302300,0.8,0.8,0.8
54.054699,72.093102,4.842000,0.8,0.8,0.8
58.369598,78.673500,2.778800,0.8,0.8,0.8
50.793598,88.688004,-0.954500,0.8,0.8,0.8
45.496201,75.560600,-1.294000,0.8,0.8,0.8
46.166801,71.884003,-0.583400,0.8,0.8,0.8
52.933998,79.032700,-0.120400,0.8,0.8,0.8
52.987301,80.444298,-1.289300,0.8,0.8,0.8
45.693199,73.903397,0.670400,0.8,0.8,0.8
51.597500,76.970901,6.573200,0.8,0.8,0.8
53.080601,78.466499,-0.523100,0.8,0.8,0.8
48.475601,73.871002,-0.857000,0.8,0.8,0.8
49.395699,75.110603,2.041600,0.8,0.8,0.8
59.740398,74.166801,2.727200,0.8,0.8,0.8
51.574100,76.998497,7.465500,0.8,0.8,0.8
46.564098,71.483803,2.689000,0.8,0.8,0.8
59.334000,74.406097,4.112800,0.8,0.8,0.8
50.042801,77.422203,-0.460900,0.8,0.8,0.8
54.395901,81.668404,-0.593200,0.8,0.8,0.8
46.577000,71.187897,0.539500,0.8,0.8,0.8
48.149700,75.178596,0.961100,0.8,0.8,0.8
52.313900,76.216797,5.280400,0.8,0.8,0.8
52.673500,74.979897,3.487500,0.8,0.8,0.8
55.014999,72.782402,5.219400,0.8,0.8,0.8
55.062000,77.694603,4.133300,0.8,0.8,0.8
48.175598,75.273697,-0.169600,0.8,0.8,0.8
46.541401,71.266602,6.364300,0.8,0.8,0.8
56.021198,73.028397,5.764400,0.8,0.8,0.8
52.361599,80.852898,3.689600,0.8,0.8,0.8
49.141800,71.235397,-1.129800,0.8,0.8,0.8
46.740799,70.966301,2.421000,0.8,0.8,0.8
56.150902,82.751099,0.756500,0.8,0.8,0.8
56.072601,79.525200,3.860900,0.8,0.8,0.8
54.776901,78.147003,3.935800,0.8,0.8,0.8
54.533798,80.594002,-1.282800,0.8,0.8,0.8
46.285702,72.043701,3.808400,0.8,0.8,0.8
50.411499,87.199402,0.993700,0.8,0.8,0.8
45.775501,73.647003,4.969600,0.8,0.8,0.8
48.474300,75.161697,-0.230500,0.8,0.8,0.8
54.195301,77.237999,4.120800,0.8,0.8,0.8
51.718201,75.060898,-1.302600,0.8,0.8,0.8
59.092201,76.231201,1.186100,0.8,0.8,0.8
58.478901,73.312698,2.252600,0.8,0.8,0.8
51.665699,77.111900,-1.301800,0.8,0.8,0.8
50.459400,74.802803,8.725300,0.8,0.8,0.8
52.436001,74.454399,8.722600,0.8,0.8,0.8
47.053600,76.186501,8.731200,0.8,0.8,0.8
49.418301,77.302902,4.984900,0.8,0.8,0.8
57.693802,76.144096,4.136700,0.8,0.8,0.8
47.749599,76.731598,-0.656200,0.8,0.8,0.8
51.554401,83.488197,-0.160500,0.8,0.8,0.8
51.485199,71.212097,5.857400,0.8,0.8,0.8
46.138500,72.540703,0.250400,0.8,0.8,0.8
53.483398,71.575302,0.819100,0.8,0.8,0.8
58.715401,76.516197,3.350600,0.8,0.8,0.8
51.723999,72.425697,-0.483000,0.8,0.8,0.8
51.663898,76.399200,8.030500,0.8,0.8,0.8
54.916000,72.196899,4.036700,0.8,0.8,0.8
49.228500,76.781097,4.221200,0.8,0.8,0.8
54.724400,79.361099,-1.281600,0.8,0.8,0.8
48.231899,75.958801,-1.303100,0.8,0.8,0.8
50.008202,73.096397,8.722100,0.8,0.8,0.8
58.034599,79.854500,-0.270300,0.8,0.8,0.8
56.924000,81.116501,3.731100,0.8,0.8,0.8
46.456799,71.863197,1.968600,0.8,0.8,0.8
46.487000,71.734497,2.982200,0.8,0.8,0.8
46.436798,72.816101,-1.062900,0.8,0.8,0.8
48.276100,76.889000,-0.806200,0.8,0.8,0.8
47.322701,70.042702,5.694800,0.8,0.8,0.8
54.968300,80.049896,3.782800,0.8,0.8,0.8
56.174702,72.111000,4.260300,0.8,0.8,0.8
49.844898,76.278503,1.339700,0.8,0.8,0.8
52.116299,70.959000,3.731200,0.8,0.8,0.8
53.869301,71.827103,0.984000,0.8,0.8,0.8
56.666599,74.078201,4.144900,0.8,0.8,0.8
50.074902,70.795502,8.341200,0.8,0.8,0.8
48.324699,74.105202,-0.593100,0.8,0.8,0.8
57.479900,77.141502,-1.295900,0.8,0.8,0.8
56.656799,82.916100,2.709200,0.8,0.8,0.8
55.244900,72.444298,3.264400,0.8,0.8,0.8
47.954601,71.280403,-0.490200,0.8,0.8,0.8
57.519199,81.878304,1.140300,0.8,0.8,0.8
51.257500,84.482002,0.203400,0.8,0.8,0.8
55.049900,72.388199,7.345300,0.8,0.8,0.8
58.404900,72.775597,4.280700,0.8,0.8,0.8
51.699902,83.011803,0.487200,0.8,0.8,0.8
56.251099,82.658798,-0.356500,0.8,0.8,0.8
46.284302,72.058800,1.049100,0.8,0.8,0.8
54.152199,74.077003,-0.821400,0.8,0.8,0.8
59.358501,75.379204,3.782400,0.8,0.8,0.8
46.945499,70.051903,-0.080300,0.8,0.8,0.8
51.205200,76.687302,8.728800,0.8,0.8,0.8
54.780998,80.614700,-1.289300,0.8,0.8,0.8
56.350899,80.129097,3.813300,0.8,0.8,0.8
53.356400,73.418602,-0.754600,0.8,0.8,0.8
49.218300,70.789597,-0.549700,0.8,0.8,0.8
54.603802,73.435600,-0.923000,0.8,0.8,0.8
53.585999,73.322899,7.354500,0.8,0.8,0.8
52.988300,78.299797,2.199800,0.8,0.8,0.8
50.602299,71.499001,-0.883700,0.8,0.8,0.8
55.215099,74.782204,4.149000,0.8,0.8,0.8
53.767601,82.254402,-1.282000,0.8,0.8,0.8
52.948502,77.055702,-1.288100,0.8,0.8,0.8
51.989300,82.049202,3.256800,0.8,0.8,0.8
49.844398,70.274696,8.183800,0.8,0.8,0.8
54.771198,75.405403,-1.301700,0.8,0.8,0.8
51.138699,84.846703,0.815600,0.8,0.8,0.8
45.046799,75.966202,2.154700,0.8,0.8,0.8
52.838902,77.363701,-1.005400,0.8,0.8,0.8
51.636299,76.751297,7.238700,0.8,0.8,0.8
57.694698,80.893097,2.110200,0.8,0.8,0.8
45.055599,75.853203,3.967900,0.8,0.8,0.8
59.571201,74.681900,3.554400,0.8,0.8,0.8
58.732399,76.464600,1.102300,0.8,0.8,0.8
55.514599,81.777802,3.628300,0.8,0.8,0.8
50.919899,77.685303,3.798800,0.8,0.8,0.8
51.001301,77.716698,2.348600,0.8,0.8,0.8
52.453899,88.086998,2.689300,0.8,0.8,0.8
51.286499,74.520203,4.807000,0.8,0.8,0.8
46.423000,71.634697,6.273600,0.8,0.8,0.8
50.027100,77.518799,8.384800,0.8,0.8,0.8
52.992901,80.816704,-1.288800,0.8,0.8,0.8
55.357498,78.087601,3.952600,0.8,0.8,0.8
48.885502,74.015999,2.256500,0.8,0.8,0.8
46.201199,76.262703,1.909700,0.8,0.8,0.8
50.415600,77.535500,1.234100,0.8,0.8,0.8
45.473499,74.591202,1.765200,0.8,0.8,0.8
45.878101,73.344902,1.618500,0.8,0.8,0.8
58.139099,74.739197,4.117400,0.8,0.8,0.8
54.427799,75.769402,4.134600,0.8,0.8,0.8
50.911201,77.723602,5.081700,0.8,0.8,0.8
58.445499,73.301201,4.189300,0.8,0.8,0.8
53.859402,72.948402,8.727400,0.8,0.8,0.8
45.725700,73.822197,0.096700,0.8,0.8,0.8
58.875198,77.010696,4.465000,0.8,0.8,0.8
53.333302,73.578102,-0.780200,0.8,0.8,0.8
53.436298,83.610199,3.403500,0.8,0.8,0.8
47.939400,75.117599,1.059100,0.8,0.8,0.8
48.077202,70.164299,2.905000,0.8,0.8,0.8
50.962502,72.456703,8.400700,0.8,0.8,0.8
54.108799,71.450500,1.557200,0.8,0.8,0.8
59.752899,74.108200,3.009400,0.8,0.8,0.8
50.367599,74.469200,1.686200,0.8,0.8,0.8
49.068699,70.183403,4.582000,0.8,0.8,0.8
58.756302,75.620300,4.134000,0.8,0.8,0.8
54.856602,77.874100,3.955500,0.8,0.8,0.8
45.603699,74.183601,7.246100,0.8,0.8,0.8
49.390499,77.232201,3.833700,0.8,0.8,0.8
57.228699,80.337402,3.821200,0.8,0.8,0.8
52.545300,74.939201,3.372000,0.8,0.8,0.8
52.452202,78.143898,-1.075200,0.8,0.8,0.8
59.187901,75.347900,-1.301100,0.8,0.8,0.8
48.348301,70.253799,6.015100,0.8,0.8,0.8
48.696400,76.578598,1.575100,0.8,0.8,0.8
55.921101,73.027100,-1.314200,0.8,0.8,0.8
50.267799,77.489700,-0.321400,0.8,0.8,0.8
59.068501,76.027199,2.665900,0.8,0.8,0.8
57.889801,79.807297,0.730100,0.8,0.8,0.8
52.919201,78.139702,4.111700,0.8,0.8,0.8
53.822701,74.309402,4.271800,0.8,0.8,0.8
46.336201,71.910599,8.577100,0.8,0.8,0.8
49.989700,70.867401,8.648500,0.8,0.8,0.8
49.675598,76.220001,4.717500,0.8,0.8,0.8
54.751202,72.216003,4.576200,0.8,0.8,0.8
46.480499,71.474503,0.999100,0.8,0.8,0.8
51.694199,83.015602,1.261100,0.8,0.8,0.8
58.518101,78.186996,2.697600,0.8,0.8,0.8
53.438599,71.274803,4.222000,0.8,0.8,0.8
53.632401,82.753998,3.487400,0.8,0.8,0.8
51.169201,88.805702,1.271900,0.8,0.8,0.8
48.268501,71.196800,-0.687300,0.8,0.8,0.8
58.210201,79.226601,2.233700,0.8,0.8,0.8
55.158501,72.418602,1.462100,0.8,0.8,0.8
53.699299,84.389900,4.370500,0.8,0.8,0.8
54.227200,74.923698,-1.301800,0.8,0.8,0.8
47.636200,71.977402,-1.297000,0.8,0.8,0.8
52.173100,82.796303,-1.289900,0.8,0.8,0.8
54.910801,79.651604,-1.284000,0.8,0.8,0.8
52.039600,74.464104,4.857100,0.8,0.8,0.8
47.440800,70.974998,8.719500,0.8,0.8,0.8
57.799599,80.380501,-0.136300,0.8,0.8,0.8
58.367599,73.225304,3.185500,0.8,0.8,0.8
45.383701,76.010803,2.740600,0.8,0.8,0.8
48.475800,70.449898,1.418700,0.8,0.8,0.8
57.656601,81.000397,3.515900,0.8,0.8,0.8
51.500900,72.386299,2.211000,0.8,0.8,0.8
59.596901,74.525002,-1.303700,0.8,0.8,0.8
54.546799,72.034798,0.905400,0.8,0.8,0.8
50.762199,70.897797,1.006500,0.8,0.8,0.8
57.144199,73.876801,4.142900,0.8,0.8,0.8
52.072601,70.955597,7.232500,0.8,0.8,0.8
52.527599,80.301498,2.798700,0.8,0.8,0.8
52.761299,74.700104,1.014600,0.8,0.8,0.8
53.366699,82.502403,-1.282500,0.8,0.8,0.8
45.603298,74.139198,2.949300,0.8,0.8,0.8
51.872700,84.261200,-1.292900,0.8,0.8,0.8
51.529598,71.337799,5.970200,0.8,0.8,0.8
54.522202,82.193298,0.826500,0.8,0.8,0.8
52.711201,75.403603,5.270200,0.8,0.8,0.8
46.375198,73.040703,0.426000,0.8,0.8,0.8
55.812401,79.627502,-0.265900,0.8,0.8,0.8
54.732800,82.266602,-0.259600,0.8,0.8,0.8
51.983601,72.732597,-0.572700,0.8,0.8,0.8
51.846100,82.519897,-0.384500,0.8,0.8,0.8
50.901001,76.653702,-1.308700,0.8,0.8,0.8
50.883801,76.547096,5.077300,0.8,0.8,0.8
49.793301,75.563301,2.908400,0.8,0.8,0.8
49.950401,70.956802,-0.399400,0.8,0.8,0.8
45.681999,76.110497,1.849100,0.8,0.8,0.8
56.852901,77.227600,-1.292700,0.8,0.8,0.8
53.453701,76.409897,-1.284100,0.8,0.8,0.8
58.395100,78.568398,1.926700,0.8,0.8,0.8
50.872200,71.136703,8.516600,0.8,0.8,0.8
49.821201,74.793297,-1.297700,0.8,0.8,0.8
48.477001,76.104500,8.729500,0.8,0.8,0.8
47.905899,75.964699,-1.306200,0.8,0.8,0.8
55.592400,72.824203,-0.224900,0.8,0.8,0.8
52.709099,74.895699,2.258500,0.8,0.8,0.8
51.031200,77.572701,5.085200,0.8,0.8,0.8
47.541698,69.997704,1.770500,0.8,0.8,0.8
53.199200,71.726997,5.986600,0.8,0.8,0.8
51.508801,74.298302,-1.305800,0.8,0.8,0.8
50.040501,74.068298,4.439300,0.8,0.8,0.8
55.148499,75.242401,4.132300,0.8,0.8,0.8
47.474098,71.290298,8.722800,0.8,0.8,0.8
58.982601,75.220596,-1.301800,0.8,0.8,0.8
51.223900,75.852699,-1.297400,0.8,0.8,0.8
56.949100,78.819000,4.005500,0.8,0.8,0.8
57.473900,82.333603,1.964800,0.8,0.8,0.8
51.701401,76.414803,4.873800,0.8,0.8,0.8
50.511902,75.529099,-1.294800,0.8,0.8,0.8
57.695801,80.714302,3.800500,0.8,0.8,0.8
47.714401,76.427803,3.484300,0.8,0.8,0.8
55.424599,80.162804,-0.104900,0.8,0.8,0.8
52.764301,78.133202,4.118500,0.8,0.8,0.8
50.783901,74.349503,4.449600,0.8,0.8,0.8
48.312698,75.324898,0.068800,0.8,0.8,0.8
51.990002,74.730103,4.793000,0.8,0.8,0.8
50.372501,70.373001,0.786500,0.8,0.8,0.8
46.389999,72.975899,-0.789900,0.8,0.8,0.8
50.854401,77.208702,4.922600,0.8,0.8,0.8
54.767399,71.820702,8.185700,0.8,0.8,0.8
57.854000,79.797203,0.011900,0.8,0.8,0.8
57.629398,80.184601,0.860600,0.8,0.8,0.8
49.254501,70.162697,4.488100,0.8,0.8,0.8
53.956600,79.748398,3.784800,0.8,0.8,0.8
45.554401,72.815903,7.181800,0.8,0.8,0.8
54.955200,72.221603,7.264100,0.8,0.8,0.8
46.162899,72.982201,6.188300,0.8,0.8,0.8
48.949200,75.219200,-1.215900,0.8,0.8,0.8
46.871101,70.486801,1.488200,0.8,0.8,0.8
57.670898,80.961098,1.558800,0.8,0.8,0.8
54.176399,78.850601,-1.285300,0.8,0.8,0.8
47.770901,71.543602,8.720100,0.8,0.8,0.8
48.691299,74.232597,8.723900,0.8,0.8,0.8
48.012199,74.600998,2.933300,0.8,0.8,0.8
57.629200,75.324303,-1.298900,0.8,0.8,0.8
56.974800,75.435303,0.837000,0.8,0.8,0.8
56.382599,82.823700,3.113900,0.8,0.8,0.8
54.357700,72.073601,5.873300,0.8,0.8,0.8
46.400700,72.030296,1.445100,0.8,0.8,0.8
51.500702,74.759598,-1.299300,0.8,0.8,0.8
49.120800,71.251701,8.722300,0.8,0.8,0.8
46.959202,74.983200,-1.287300,0.8,0.8,0.8
53.473598,82.687599,3.490800,0.8,0.8,0.8
54.783298,80.611702,3.717300,0.8,0.8,0.8
53.344398,77.832298,-1.290700,0.8,0.8,0.8
51.007801,73.260002,8.721600,0.8,0.8,0.8
51.018398,88.754303,-0.058600,0.8,0.8,0.8
55.341499,82.481102,3.326000,0.8,0.8,0.8
56.719501,82.939598,2.063800,0.8,0.8,0.8
51.741501,77.931000,3.820400,0.8,0.8,0.8
54.530701,81.252899,3.647400,0.8,0.8,0.8
54.515499,81.177399,3.658000,0.8,0.8,0.8
47.091599,69.982903,2.627100,0.8,0.8,0.8
53.670700,73.708504,-1.307100,0.8,0.8,0.8
45.622700,74.239700,1.355200,0.8,0.8,0.8
57.228401,75.247803,0.817600,0.8,0.8,0.8
47.576302,71.782204,-1.121100,0.8,0.8,0.8
52.408501,74.684196,6.838700,0.8,0.8,0.8
47.845501,76.764603,0.846700,0.8,0.8,0.8
50.419300,87.184196,-0.411300,0.8,0.8,0.8
52.011101,75.900597,5.326000,0.8,0.8,0.8
50.769199,75.678497,1.435300,0.8,0.8,0.8
50.412399,75.983704,-1.301000,0.8,0.8,0.8
57.683498,79.914497,2.583300,0.8,0.8,0.8
59.279701,75.318199,2.061800,0.8,0.8,0.8
45.106800,76.041901,7.561900,0.8,0.8,0.8
47.317699,74.575798,3.288100,0.8,0.8,0.8
54.953899,80.346397,-1.029600,0.8,0.8,0.8
51.042198,76.321198,8.728000,0.8,0.8,0.8
51.240898,84.508499,-0.955500,0.8,0.8,0.8
49.614700,77.298203,4.072600,0.8,0.8,0.8
51.015202,72.154503,8.728700,0.8,0.8,0.8
51.980801,71.231201,6.577000,0.8,0.8,0.8
58.589298,77.930298,3.720900,0.8,0.8,0.8
51.566200,75.703201,1.520100,0.8,0.8,0.8
51.284302,77.794701,3.500100,0.8,0.8,0.8
53.873199,75.304901,4.167000,0.8,0.8,0.8
50.797699,88.686798,0.311500,0.8,0.8,0.8
46.681801,70.869904,0.203800,0.8,0.8,0.8
46.232201,72.303101,2.320800,0.8,0.8,0.8
48.234299,75.291702,-0.095000,0.8,0.8,0.8
46.861000,70.257301,3.530300,0.8,0.8,0.8
46.849800,76.461601,2.824400,0.8,0.8,0.8
53.032700,77.914001,-1.291000,0.8,0.8,0.8
46.413399,72.884598,2.547500,0.8,0.8,0.8
51.241199,73.980003,8.729000,0.8,0.8,0.8
50.164101,75.897003,1.171900,0.8,0.8,0.8
51.870399,77.354897,4.970900,0.8,0.8,0.8
46.108799,72.653397,2.042800,0.8,0.8,0.8
45.248699,75.269096,1.435900,0.8,0.8,0.8
50.917702,74.016502,-1.304800,0.8,0.8,0.8
51.513901,77.510300,-1.208200,0.8,0.8,0.8
58.660000,77.708298,3.331600,0.8,0.8,0.8
54.207199,73.478203,4.945000,0.8,0.8,0.8
48.153400,70.190002,3.931200,0.8,0.8,0.8
47.981499,71.517799,-1.054300,0.8,0.8,0.8
52.944500,78.918900,3.259600,0.8,0.8,0.8
46.674500,71.133102,2.071200,0.8,0.8,0.8
55.372200,72.445503,1.775700,0.8,0.8,0.8
47.940399,73.827904,3.237700,0.8,0.8,0.8
57.014099,72.503601,4.499200,0.8,0.8,0.8
58.533001,73.791000,4.125900,0.8,0.8,0.8
52.375000,77.061401,4.802800,0.8,0.8,0.8
46.392399,72.962097,2.035900,0.8,0.8,0.8
48.925598,70.014801,-1.229600,0.8,0.8,0.8
59.034302,76.456703,-0.109300,0.8,0.8,0.8
57.551800,82.005203,3.056700,0.8,0.8,0.8
59.734901,73.815697,2.922500,0.8,0.8,0.8
46.489300,71.444801,4.806500,0.8,0.8,0.8
55.972401,76.249397,4.116700,0.8,0.8,0.8
47.332699,70.012299,4.273200,0.8,0.8,0.8
52.552299,74.080498,8.721700,0.8,0.8,0.8
50.501301,77.549202,1.118200,0.8,0.8,0.8
55.462399,72.395401,3.642000,0.8,0.8,0.8
53.558998,78.306396,3.903500,0.8,0.8,0.8
57.261902,73.539902,4.151100,0.8,0.8,0.8
58.545399,78.054901,-0.792100,0.8,0.8,0.8
55.702202,79.326500,-0.250600,0.8,0.8,0.8
52.584702,74.617104,5.763100,0.8,0.8,0.8
53.919498,75.108498,4.176200,0.8,0.8,0.8
47.962601,76.428802,8.729700,0.8,0.8,0.8
52.510101,78.161003,-0.999900,0.8,0.8,0.8
59.356201,73.578300,1.066600,0.8,0.8,0.8
52.096001,77.329102,-1.297500,0.8,0.8,0.8
52.598202,80.046402,-0.990400,0.8,0.8,0.8
54.571899,79.244301,3.844000,0.8,0.8,0.8
50.225899,76.306396,8.732200,0.8,0.8,0.8
48.938999,70.428497,5.298300,0.8,0.8,0.8
51.559799,72.513702,8.727200,0.8,0.8,0.8
59.464699,75.042801,4.467200,0.8,0.8,0.8
50.559799,70.394096,2.248800,0.8,0.8,0.8
55.570999,77.185799,4.128700,0.8,0.8,0.8
53.781799,71.314499,2.197600,0.8,0.8,0.8
53.473900,82.435600,-1.281300,0.8,0.8,0.8
57.023899,80.190903,-0.398600,0.8,0.8,0.8
57.066898,77.752701,4.195200,0.8,0.8,0.8
51.824699,72.652199,-0.881600,0.8,0.8,0.8
58.423302,72.650002,2.191000,0.8,0.8,0.8
53.088600,71.126701,2.199300,0.8,0.8,0.8
51.764000,88.980301,2.460400,0.8,0.8,0.8
45.873600,73.329597,3.710900,0.8,0.8,0.8
54.331501,71.969803,0.946900,0.8,0.8,0.8
52.020500,82.318604,-1.287900,0.8,0.8,0.8
55.323601,79.514999,-0.721100,0.8,0.8,0.8
54.444199,80.256897,-1.285400,0.8,0.8,0.8
54.524799,81.701599,3.600900,0.8,0.8,0.8
51.943401,87.488899,3.015800,0.8,0.8,0.8
56.732498,73.529297,-1.315100,0.8,0.8,0.8
52.752102,79.548103,-0.473700,0.8,0.8,0.8
45.444801,74.676804,-1.082200,0.8,0.8,0.8
52.594398,80.068901,2.651500,0.8,0.8,0.8
57.115398,82.768303,-0.287300,0.8,0.8,0.8
54.612000,74.561996,-0.637700,0.8,0.8,0.8
59.594200,74.263000,2.431800,0.8,0.8,0.8
51.623402,83.254799,-1.000200,0.8,0.8,0.8
55.265999,72.450401,2.047200,0.8,0.8,0.8
51.108501,77.741501,1.379300,0.8,0.8,0.8
55.578098,79.272697,-0.797800,0.8,0.8,0.8
58.833302,73.418999,1.398600,0.8,0.8,0.8
48.216000,76.872704,1.251700,0.8,0.8,0.8
50.669399,77.610802,0.979500,0.8,0.8,0.8
46.883202,76.632103,8.231900,0.8,0.8,0.8
58.038898,79.774902,1.855400,0.8,0.8,0.8
51.922001,82.030403,0.722300,0.8,0.8,0.8
46.641701,72.289398,8.724200,0.8,0.8,0.8
52.895000,73.971802,7.876600,0.8,0.8,0.8
46.960098,71.577103,8.720800,0.8,0.8,0.8
54.141499,71.442703,2.359800,0.8,0.8,0.8
53.033001,78.242996,-1.291100,0.8,0.8,0.8
57.186798,72.412697,4.323200,0.8,0.8,0.8
45.292099,75.145897,-1.073600,0.8,0.8,0.8
47.837601,70.096603,7.577300,0.8,0.8,0.8
46.798801,71.163399,4.882300,0.8,0.8,0.8
52.215099,74.795601,4.929600,0.8,0.8,0.8
59.541199,74.403397,2.845800,0.8,0.8,0.8
46.558800,71.229202,1.039100,0.8,0.8,0.8
52.612301,83.527603,3.395200,0.8,0.8,0.8
52.178001,73.239502,8.725200,0.8,0.8,0.8
46.608200,74.062202,3.081600,0.8,0.8,0.8
50.066700,74.162201,4.556000,0.8,0.8,0.8
47.848301,70.853500,8.718900,0.8,0.8,0.8
52.929699,79.483902,0.809200,0.8,0.8,0.8
45.632000,74.093697,1.286000,0.8,0.8,0.8
52.460701,77.764000,-1.055800,0.8,0.8,0.8
45.587299,74.275101,-0.815700,0.8,0.8,0.8
54.839901,73.061897,4.849900,0.8,0.8,0.8
50.826801,70.501198,4.326700,0.8,0.8,0.8
51.993000,71.410202,2.431400,0.8,0.8,0.8
50.772499,71.991501,-0.808900,0.8,0.8,0.8
52.950802,79.426003,0.843000,0.8,0.8,0.8
53.525398,80.171204,-1.287600,0.8,0.8,0.8
52.141998,78.046799,1.699100,0.8,0.8,0.8
55.987499,73.879097,-1.313100,0.8,0.8,0.8
55.127102,77.887398,4.139000,0.8,0.8,0.8
51.667099,77.334999,-1.302700,0.8,0.8,0.8
51.943298,74.440102,4.649800,0.8,0.8,0.8
55.992199,79.655502,-0.276800,0.8,0.8,0.8
48.645100,70.342598,5.580100,0.8,0.8,0.8
51.302200,84.324898,0.693800,0.8,0.8,0.8
53.984901,79.356003,3.821400,0.8,0.8,0.8
56.432701,79.643997,3.862100,0.8,0.8,0.8
55.101002,74.664902,-0.886900,0.8,0.8,0.8
57.662899,79.986099,2.142900,0.8,0.8,0.8
59.029301,76.097099,1.086800,0.8,0.8,0.8
47.985298,76.802696,2.686600,0.8,0.8,0.8
49.396999,76.480499,8.727000,0.8,0.8,0.8
52.204899,81.349800,1.148400,0.8,0.8,0.8
46.137798,72.527298,5.752700,0.8,0.8,0.8
48.945999,75.984703,4.182200,0.8,0.8,0.8
51.955200,82.158501,0.408400,0.8,0.8,0.8
49.386600,71.710403,8.718800,0.8,0.8,0.8
56.575001,82.891899,1.973000,0.8,0.8,0.8
52.401100,71.600899,8.667200,0.8,0.8,0.8
51.389999,88.872704,1.417900,0.8,0.8,0.8
55.060299,71.651398,2.221100,0.8,0.8,0.8
58.195400,74.684196,-1.153600,0.8,0.8,0.8
49.836498,76.215302,1.355000,0.8,0.8,0.8
57.654400,80.035004,0.233100,0.8,0.8,0.8
46.620800,73.696404,-1.294700,0.8,0.8,0.8
46.645802,71.251801,3.045200,0.8,0.8,0.8
46.850498,70.557701,1.714100,0.8,0.8,0.8
52.269501,77.489601,4.133200,0.8,0.8,0.8
56.361301,78.371201,-0.809600,0.8,0.8,0.8
48.985699,76.119202,0.778100,0.8,0.8,0.8
46.910999,70.106697,5.922100,0.8,0.8,0.8
49.432899,72.495697,8.719300,0.8,0.8,0.8
48.733501,69.882301,8.167800,0.8,0.8,0.8
53.012699,73.010803,8.720700,0.8,0.8,0.8
54.939602,76.510498,-1.292200,0.8,0.8,0.8
52.418701,74.270103,-1.305500,0.8,0.8,0.8
50.327900,75.406197,-1.292900,0.8,0.8,0.8
45.690498,73.946503,2.037900,0.8,0.8,0.8
46.320000,71.902397,3.439900,0.8,0.8,0.8
57.533199,81.475601,-0.252500,0.8,0.8,0.8
53.974701,80.762604,-1.283400,0.8,0.8,0.8
53.501701,71.805801,5.761300,0.8,0.8,0.8
48.283199,76.303902,-1.306300,0.8,0.8,0.8
