x,y,z,r,g,b
59.197800,74.625298,4.121000,0.8,0.8,0.8
55.384701,72.483299,1.145700,0.8,0.8,0.8
53.339100,85.373802,4.983800,0.8,0.8,0.8
56.110901,75.074600,-1.300400,0.8,0.8,0.8
55.018902,72.596603,8.847200,0.8,0.8,0.8
59.496799,73.703400,0.598100,0.8,0.8,0.8
52.412102,74.902298,1.746000,0.8,0.8,0.8
54.026199,78.152100,-1.291900,0.8,0.8,0.8
53.307899,73.528000,-0.778200,0.8,0.8,0.8
53.868900,72.042900,4.974000,0.8,0.8,0.8
58.427399,78.453598,4.238100,0.8,0.8,0.8
55.951698,79.052002,3.893700,0.8,0.8,0.8
55.078701,74.656998,0.738200,0.8,0.8,0.8
51.429699,83.890701,-0.333300,0.8,0.8,0.8
48.009701,73.665298,0.713900,0.8,0.8,0.8
46.396999,71.178802,-1.193700,0.8,0.8,0.8
51.849602,82.503098,2.053500,0.8,0.8,0.8
59.086899,73.494301,3.054300,0.8,0.8,0.8
58.145100,79.377998,3.869400,0.8,0.8,0.8
59.604900,74.030197,-1.229600,0.8,0.8,0.8
51.439301,77.732300,-0.337700,0.8,0.8,0.8
52.297901,81.029900,3.637600,0.8,0.8,0.8
57.552299,81.379501,0.351800,0.8,0.8,0.8
55.269001,82.450897,0.632000,0.8,0.8,0.8
46.496799,71.396202,3.694800,0.8,0.8,0.8
53.508099,79.506500,-1.288600,0.8,0.8,0.8
52.386299,74.791199,0.637100,0.8,0.8,0.8
48.126701,76.946800,8.588600,0.8,0.8,0.8
48.135399,74.649902,8.733600,0.8,0.8,0.8
45.030800,75.960403,-0.034800,0.8,0.8,0.8
57.445400,79.111504,3.921700,0.8,0.8,0.8
52.557499,80.205803,3.752200,0.8,0.8,0.8
46.707901,73.272003,8.735400,0.8,0.8,0.8
52.436699,73.215797,-1.302700,0.8,0.8,0.8
49.738701,74.977501,-1.295000,0.8,0.8,0.8
46.496498,76.352798,-0.746100,0.8,0.8,0.8
51.511299,72.405701,-0.717900,0.8,0.8,0.8
46.903099,70.263397,2.689400,0.8,0.8,0.8
52.383202,74.760300,6.558100,0.8,0.8,0.8
57.509800,81.491203,2.444400,0.8,0.8,0.8
48.794399,77.049599,1.389200,0.8,0.8,0.8
47.424900,76.633102,-0.853500,0.8,0.8,0.8
45.549400,76.067398,1.098600,0.8,0.8,0.8
47.677200,70.039703,0.392000,0.8,0.8,0.8
48.331001,71.250099,8.717000,0.8,0.8,0.8
49.747501,73.397003,-1.298100,0.8,0.8,0.8
48.174099,76.261398,8.729300,0.8,0.8,0.8
48.704498,72.205902,8.719800,0.8,0.8,0.8
47.509499,71.493401,8.721600,0.8,0.8,0.8
49.202400,77.169197,1.754500,0.8,0.8,0.8
53.950001,78.634903,-1.289900,0.8,0.8,0.8
50.817200,75.695900,1.439400,0.8,0.8,0.8
46.693298,71.038002,1.910400,0.8,0.8,0.8
52.468800,80.487297,2.088900,0.8,0.8,0.8
51.660500,83.129097,0.776900,0.8,0.8,0.8
52.445000,74.581398,3.631700,0.8,0.8,0.8
54.906101,74.398201,-1.028900,0.8,0.8,0.8
52.477402,80.472603,2.921000,0.8,0.8,0.8
57.799099,80.588303,-0.427000,0.8,0.8,0.8
49.292500,72.727898,-1.300400,0.8,0.8,0.8
46.142399,76.244202,1.533200,0.8,0.8,0.8
53.112000,74.168198,5.023700,0.8,0.8,0.8
54.252899,81.539398,-1.283300,0.8,0.8,0.8
55.123501,82.403198,0.210100,0.8,0.8,0.8
58.854900,76.837997,1.300400,0.8,0.8,0.8
51.352402,71.683197,8.726500,0.8,0.8,0.8
53.362499,83.578903,3.403300,0.8,0.8,0.8
49.888000,76.971703,2.356500,0.8,0.8,0.8
51.351398,72.491898,8.724900,0.8,0.8,0.8
46.093800,72.123901,-1.214400,0.8,0.8,0.8
50.593700,86.615997,-0.365300,0.8,0.8,0.8
46.121601,73.633003,-1.296800,0.8,0.8,0.8
50.108398,77.444298,1.002100,0.8,0.8,0.8
47.236401,70.028503,6.271200,0.8,0.8,0.8
56.850601,75.555397,-1.298100,0.8,0.8,0.8
54.462002,71.581902,4.473300,0.8,0.8,0.8
55.086601,80.997902,3.691100,0.8,0.8,0.8
53.125900,78.412903,0.138800,0.8,0.8,0.8
51.971298,89.043999,-0.280200,0.8,0.8,0.8
45.220798,75.361397,-0.355600,0.8,0.8,0.8
57.685699,78.053497,4.241700,0.8,0.8,0.8
48.405499,70.388000,8.659000,0.8,0.8,0.8
55.030300,72.377701,0.088100,0.8,0.8,0.8
51.534199,71.943497,-0.650800,0.8,0.8,0.8
56.801998,82.969101,0.350300,0.8,0.8,0.8
47.426399,70.791397,-1.299100,0.8,0.8,0.8
53.555000,74.654404,4.244300,0.8,0.8,0.8
54.564899,74.675598,4.176200,0.8,0.8,0.8
52.745998,77.899498,4.125700,0.8,0.8,0.8
46.138401,72.532898,7.514000,0.8,0.8,0.8
45.021801,75.970802,7.093800,0.8,0.8,0.8
56.805000,82.918098,1.283200,0.8,0.8,0.8
47.892601,70.104103,-0.051700,0.8,0.8,0.8
46.678600,70.843201,7.411000,0.8,0.8,0.8
56.209301,78.629501,-0.249000,0.8,0.8,0.8
52.516800,80.339203,3.134200,0.8,0.8,0.8
52.779301,76.478302,-1.284400,0.8,0.8,0.8
57.826900,72.603104,4.439000,0.8,0.8,0.8
46.519798,71.345001,8.400100,0.8,0.8,0.8
59.823002,73.984299,1.999700,0.8,0.8,0.8
55.762798,81.187202,3.688100,0.8,0.8,0.8
51.805698,81.995102,0.759900,0.8,0.8,0.8
52.048901,89.070801,1.042900,0.8,0.8,0.8
55.605000,72.753403,0.428100,0.8,0.8,0.8
58.228298,79.136497,2.972700,0.8,0.8,0.8
55.099201,72.401703,1.421800,0.8,0.8,0.8
52.029301,74.404900,8.728100,0.8,0.8,0.8
51.026402,70.561798,4.428800,0.8,0.8,0.8
49.142601,76.581802,4.514700,0.8,0.8,0.8
59.500000,74.579102,2.474700,0.8,0.8,0.8
51.565701,71.872597,3.593600,0.8,0.8,0.8
47.557201,71.550400,-0.455500,0.8,0.8,0.8
53.875198,72.723000,-1.305600,0.8,0.8,0.8
50.110199,77.444199,1.259400,0.8,0.8,0.8
49.891701,73.969101,8.206500,0.8,0.8,0.8
49.005001,70.086899,4.503900,0.8,0.8,0.8
50.798199,75.591003,1.509500,0.8,0.8,0.8
53.912102,72.643997,-1.308600,0.8,0.8,0.8
52.111000,73.272903,-1.305100,0.8,0.8,0.8
54.724201,78.274399,-1.283700,0.8,0.8,0.8
51.659500,71.956100,2.900000,0.8,0.8,0.8
48.691601,72.581299,-1.299200,0.8,0.8,0.8
56.526299,78.126503,4.198300,0.8,0.8,0.8
52.609501,80.017303,0.996800,0.8,0.8,0.8
47.995998,73.486504,-1.297500,0.8,0.8,0.8
48.760101,71.314102,-0.700700,0.8,0.8,0.8
54.278198,74.235802,-1.299900,0.8,0.8,0.8
57.497700,81.906799,2.534400,0.8,0.8,0.8
53.865200,73.243698,5.775900,0.8,0.8,0.8
56.989700,72.621597,-0.448800,0.8,0.8,0.8
51.547501,71.328003,2.416900,0.8,0.8,0.8
52.204498,74.507797,4.966900,0.8,0.8,0.8
52.695202,71.090599,8.236000,0.8,0.8,0.8
58.074799,79.681396,0.085400,0.8,0.8,0.8
51.202000,71.818398,-1.301800,0.8,0.8,0.8
47.161301,76.553101,-0.848700,0.8,0.8,0.8
53.495800,72.910202,-0.766300,0.8,0.8,0.8
46.163101,72.455803,1.266900,0.8,0.8,0.8
58.209000,79.209900,0.356300,0.8,0.8,0.8
54.477600,72.013901,0.918200,0.8,0.8,0.8
50.901100,77.680901,1.278900,0.8,0.8,0.8
56.618999,75.623497,4.116800,0.8,0.8,0.8
59.011501,76.129799,-0.798100,0.8,0.8,0.8
54.565701,76.730301,4.118700,0.8,0.8,0.8
49.658001,70.897697,-1.303400,0.8,0.8,0.8
51.876499,77.973000,-0.851200,0.8,0.8,0.8
59.545700,74.561401,-0.226000,0.8,0.8,0.8
55.920601,77.082397,-1.287300,0.8,0.8,0.8
49.068199,76.728699,-1.307300,0.8,0.8,0.8
54.630901,82.230698,0.854400,0.8,0.8,0.8
50.623600,77.591904,3.889700,0.8,0.8,0.8
53.053501,72.878502,-1.305100,0.8,0.8,0.8
49.010101,70.461197,5.900200,0.8,0.8,0.8
52.807201,71.504204,1.211500,0.8,0.8,0.8
50.336201,76.056099,1.211500,0.8,0.8,0.8
45.162601,75.541298,-0.724200,0.8,0.8,0.8
54.658401,78.914497,-1.285000,0.8,0.8,0.8
51.616199,71.360199,5.118600,0.8,0.8,0.8
57.183998,78.652901,3.948200,0.8,0.8,0.8
56.459599,74.657303,4.127900,0.8,0.8,0.8
45.427601,74.702103,1.052400,0.8,0.8,0.8
46.431702,72.834297,2.909100,0.8,0.8,0.8
46.463902,71.536201,4.687000,0.8,0.8,0.8
54.857800,72.174599,4.573200,0.8,0.8,0.8
53.417000,73.463699,7.594500,0.8,0.8,0.8
48.362000,74.383202,-0.776600,0.8,0.8,0.8
48.817001,74.729897,-1.101600,0.8,0.8,0.8
47.771702,74.334198,-0.409600,0.8,0.8,0.8
55.624100,74.611000,0.708900,0.8,0.8,0.8
59.396301,73.588600,0.850900,0.8,0.8,0.8
51.964199,74.639099,-1.307500,0.8,0.8,0.8
51.642200,71.366096,6.091100,0.8,0.8,0.8
53.696701,82.121597,-1.281600,0.8,0.8,0.8
45.450401,74.608902,3.599000,0.8,0.8,0.8
51.090500,86.949501,3.050600,0.8,0.8,0.8
55.934898,76.587402,-1.287600,0.8,0.8,0.8
46.967602,72.231400,-1.295800,0.8,0.8,0.8
45.563400,76.168198,8.285500,0.8,0.8,0.8
52.527199,80.302902,2.699400,0.8,0.8,0.8
54.851501,73.421898,2.080300,0.8,0.8,0.8
59.134602,76.081001,-0.012300,0.8,0.8,0.8
58.724800,77.504501,2.264200,0.8,0.8,0.8
48.029900,70.149498,2.614600,0.8,0.8,0.8
53.709801,80.497200,3.705600,0.8,0.8,0.8
49.665199,70.082397,7.964700,0.8,0.8,0.8
48.168598,75.937401,3.686300,0.8,0.8,0.8
53.891602,71.928902,5.558200,0.8,0.8,0.8
54.929699,72.755699,4.774000,0.8,0.8,0.8
45.853901,73.474800,-0.980000,0.8,0.8,0.8
54.382401,71.558296,4.117600,0.8,0.8,0.8
59.029999,76.116699,1.777600,0.8,0.8,0.8
53.028599,78.637703,3.199300,0.8,0.8,0.8
49.859600,77.365501,4.214600,0.8,0.8,0.8
59.785099,73.993698,0.635600,0.8,0.8,0.8
54.954300,80.135101,3.773100,0.8,0.8,0.8
44.713902,76.932999,8.654200,0.8,0.8,0.8
53.251099,73.317802,-0.777600,0.8,0.8,0.8
56.191200,82.764000,1.311600,0.8,0.8,0.8
56.805500,77.832397,-0.435300,0.8,0.8,0.8
54.048302,74.555397,4.202200,0.8,0.8,0.8
52.838799,78.258499,3.165700,0.8,0.8,0.8
55.761799,72.334602,4.580100,0.8,0.8,0.8
57.274700,74.434601,-1.312000,0.8,0.8,0.8
54.703899,72.901901,4.671800,0.8,0.8,0.8
58.195400,76.613800,-1.295200,0.8,0.8,0.8
59.123001,73.506302,3.234400,0.8,0.8,0.8
57.264198,74.049301,-1.312200,0.8,0.8,0.8
48.311199,77.255798,8.233400,0.8,0.8,0.8
57.369099,82.643204,0.937600,0.8,0.8,0.8
59.161400,73.518303,2.854100,0.8,0.8,0.8
47.083000,69.980400,2.785100,0.8,0.8,0.8
51.591702,71.918503,3.355800,0.8,0.8,0.8
55.809101,78.977798,-1.294500,0.8,0.8,0.8
58.132599,79.527397,-0.426500,0.8,0.8,0.8
54.852402,73.365501,2.679100,0.8,0.8,0.8
52.220600,72.999397,-1.303600,0.8,0.8,0.8
58.330898,73.358597,1.673300,0.8,0.8,0.8
45.487499,73.041496,6.691600,0.8,0.8,0.8
45.529598,72.910103,6.151500,0.8,0.8,0.8
54.767601,80.594299,-0.313100,0.8,0.8,0.8
49.003101,75.533897,0.355600,0.8,0.8,0.8
56.630600,82.904999,3.342000,0.8,0.8,0.8
52.975899,78.818298,2.492000,0.8,0.8,0.8
47.380501,69.955902,3.845000,0.8,0.8,0.8
50.421799,70.383003,7.841300,0.8,0.8,0.8
46.048100,72.259903,-0.943700,0.8,0.8,0.8
55.685001,82.587502,3.829800,0.8,0.8,0.8
58.999599,76.498901,1.951800,0.8,0.8,0.8
51.410599,71.340797,2.984500,0.8,0.8,0.8
54.794601,72.206200,5.985500,0.8,0.8,0.8
54.727100,79.338501,-1.282900,0.8,0.8,0.8
58.613800,77.875000,-0.453300,0.8,0.8,0.8
50.929600,77.122704,1.518300,0.8,0.8,0.8
51.108601,71.006500,1.194100,0.8,0.8,0.8
58.772701,76.807098,0.728200,0.8,0.8,0.8
54.389301,79.996498,3.772500,0.8,0.8,0.8
52.310902,72.423500,-0.580300,0.8,0.8,0.8
45.919899,73.210899,1.479600,0.8,0.8,0.8
57.718300,78.980400,3.933100,0.8,0.8,0.8
59.518501,73.744301,-1.005800,0.8,0.8,0.8
50.407001,76.604401,8.724200,0.8,0.8,0.8
55.889301,72.548698,6.329600,0.8,0.8,0.8
56.657398,78.898697,3.925400,0.8,0.8,0.8
50.469700,77.570702,5.084600,0.8,0.8,0.8
55.446701,73.120598,0.963500,0.8,0.8,0.8
51.101799,88.777199,2.624400,0.8,0.8,0.8
45.857399,73.401901,2.583900,0.8,0.8,0.8
58.769299,76.812500,3.643100,0.8,0.8,0.8
52.439602,74.577003,-1.124000,0.8,0.8,0.8
51.412498,77.804001,0.762600,0.8,0.8,0.8
58.452400,76.335800,4.154000,0.8,0.8,0.8
54.501900,77.280998,4.124100,0.8,0.8,0.8
54.489498,72.140297,-1.306600,0.8,0.8,0.8
52.300900,74.524002,8.730600,0.8,0.8,0.8
57.067600,82.934898,0.183600,0.8,0.8,0.8
52.044899,89.065804,-0.059500,0.8,0.8,0.8
49.607800,70.138000,0.822400,0.8,0.8,0.8
53.053501,78.293701,0.668600,0.8,0.8,0.8
56.124901,79.778999,3.839800,0.8,0.8,0.8
47.523399,69.993401,-0.839000,0.8,0.8,0.8
50.669800,70.835403,8.333400,0.8,0.8,0.8
58.123600,79.527603,0.215600,0.8,0.8,0.8
58.732101,76.455200,3.741000,0.8,0.8,0.8
48.265598,71.628998,-1.300200,0.8,0.8,0.8
58.376099,73.195702,2.420600,0.8,0.8,0.8
46.651600,70.917297,3.816600,0.8,0.8,0.8
58.086300,74.813103,4.117300,0.8,0.8,0.8
51.351398,84.167801,0.069300,0.8,0.8,0.8
58.817299,77.202103,2.845300,0.8,0.8,0.8
48.846298,71.192703,-1.300000,0.8,0.8,0.8
50.330799,87.481697,-0.504500,0.8,0.8,0.8
49.319199,73.648201,4.623000,0.8,0.8,0.8
52.170502,78.059799,2.989500,0.8,0.8,0.8
58.755001,77.372704,-0.394600,0.8,0.8,0.8
59.133400,76.130501,0.678400,0.8,0.8,0.8
47.109901,73.270699,4.442500,0.8,0.8,0.8
45.352600,73.460999,6.955600,0.8,0.8,0.8
49.793400,70.133698,-0.780400,0.8,0.8,0.8
48.390202,73.755898,-0.393400,0.8,0.8,0.8
58.761600,74.128601,4.123000,0.8,0.8,0.8
50.650799,88.644897,1.576900,0.8,0.8,0.8
58.150902,79.406998,1.296300,0.8,0.8,0.8
52.764099,74.710701,-0.606400,0.8,0.8,0.8
45.495201,76.049797,1.144300,0.8,0.8,0.8
48.751400,69.840897,2.225000,0.8,0.8,0.8
55.069302,71.820999,7.376300,0.8,0.8,0.8
55.362400,79.529701,3.839000,0.8,0.8,0.8
51.554501,71.880798,-0.827500,0.8,0.8,0.8
59.586601,73.766197,1.362100,0.8,0.8,0.8
55.992699,82.700600,2.052900,0.8,0.8,0.8
49.696098,76.152802,8.731200,0.8,0.8,0.8
45.590199,78.323700,8.720900,0.8,0.8,0.8
57.314201,82.325104,3.286600,0.8,0.8,0.8
48.665501,69.935303,0.130300,0.8,0.8,0.8
58.833698,73.419197,1.114800,0.8,0.8,0.8
56.435501,82.290901,3.601000,0.8,0.8,0.8
52.737801,74.790802,1.318300,0.8,0.8,0.8
46.282001,72.084602,4.421600,0.8,0.8,0.8
57.506500,74.448097,4.126500,0.8,0.8,0.8
55.736099,75.461700,-1.294000,0.8,0.8,0.8
53.145199,74.351700,-1.303600,0.8,0.8,0.8
51.479900,71.272903,2.026700,0.8,0.8,0.8
52.350201,80.864197,3.532500,0.8,0.8,0.8
58.030399,79.808998,1.263500,0.8,0.8,0.8
46.357201,71.286499,-0.367300,0.8,0.8,0.8
59.102299,76.185402,-0.100700,0.8,0.8,0.8
51.927502,71.683296,8.734800,0.8,0.8,0.8
54.574902,72.584801,-0.556400,0.8,0.8,0.8
46.528801,71.310402,0.908400,0.8,0.8,0.8
51.805698,71.404999,-0.153300,0.8,0.8,0.8
51.681999,88.957298,0.530000,0.8,0.8,0.8
57.252102,77.285400,4.169700,0.8,0.8,0.8
52.757500,81.873299,3.551300,0.8,0.8,0.8
58.850700,77.084000,2.987500,0.8,0.8,0.8
46.905899,70.137199,1.029200,0.8,0.8,0.8
59.014500,73.474602,1.924900,0.8,0.8,0.8
50.657101,76.054001,1.377800,0.8,0.8,0.8
45.920799,76.188004,1.255700,0.8,0.8,0.8
50.813599,72.581200,8.725600,0.8,0.8,0.8
46.421398,71.660500,1.056600,0.8,0.8,0.8
51.120098,77.361504,2.205000,0.8,0.8,0.8
58.777302,74.706200,4.124500,0.8,0.8,0.8
57.340199,75.138702,4.120200,0.8,0.8,0.8
47.929001,76.218903,-1.309000,0.8,0.8,0.8
50.551399,77.575699,-0.156600,0.8,0.8,0.8
54.593300,73.505600,-0.848900,0.8,0.8,0.8
54.889702,72.288696,-0.394400,0.8,0.8,0.8
45.906502,73.279404,1.938300,0.8,0.8,0.8
54.123299,71.453201,2.882700,0.8,0.8,0.8
50.304501,74.760399,-1.297100,0.8,0.8,0.8
51.812000,73.760498,-1.307100,0.8,0.8,0.8
46.145500,71.964203,-1.239500,0.8,0.8,0.8
58.333599,78.777603,1.819000,0.8,0.8,0.8
52.237301,77.568497,4.340400,0.8,0.8,0.8
53.321999,73.520599,7.784900,0.8,0.8,0.8
56.051800,72.256897,0.430200,0.8,0.8,0.8
54.599499,72.847298,-0.826900,0.8,0.8,0.8
57.462700,81.667603,0.222300,0.8,0.8,0.8
54.173901,72.962402,5.824900,0.8,0.8,0.8
58.255501,74.695297,-0.987000,0.8,0.8,0.8
52.620602,79.973503,-0.942200,0.8,0.8,0.8
49.289501,76.343903,8.727600,0.8,0.8,0.8
45.480999,74.560204,6.323600,0.8,0.8,0.8
46.901600,75.823097,3.290200,0.8,0.8,0.8
46.480801,77.207199,8.731400,0.8,0.8,0.8
46.118999,72.529198,3.519400,0.8,0.8,0.8
57.203201,82.473801,0.557500,0.8,0.8,0.8
48.567902,70.304199,3.201500,0.8,0.8,0.8
45.224201,73.710403,7.758000,0.8,0.8,0.8
59.289001,75.681503,-0.354100,0.8,0.8,0.8
56.719799,75.589996,4.117200,0.8,0.8,0.8
53.439800,79.468597,-1.288100,0.8,0.8,0.8
53.927399,79.632599,-1.282200,0.8,0.8,0.8
53.576302,72.990402,8.727700,0.8,0.8,0.8
56.418098,79.799698,-0.275800,0.8,0.8,0.8
59.033798,76.085800,-0.576500,0.8,0.8,0.8
50.212700,72.883698,-1.300100,0.8,0.8,0.8
58.208302,79.212303,1.721600,0.8,0.8,0.8
52.678600,74.624702,2.863000,0.8,0.8,0.8
47.918598,73.227203,8.401700,0.8,0.8,0.8
54.611099,71.894501,-0.848500,0.8,0.8,0.8
56.189800,76.235397,4.116300,0.8,0.8,0.8
52.409901,74.679901,5.965800,0.8,0.8,0.8
52.973900,85.629204,4.597000,0.8,0.8,0.8
53.921501,82.407303,3.524400,0.8,0.8,0.8
48.569801,76.536102,-1.098300,0.8,0.8,0.8
45.196201,75.428001,1.697200,0.8,0.8,0.8
59.643700,74.042297,-1.083800,0.8,0.8,0.8
55.841000,76.399902,-1.289800,0.8,0.8,0.8
48.664200,75.239502,-0.349800,0.8,0.8,0.8
52.398300,80.706497,-0.241900,0.8,0.8,0.8
49.860600,77.365097,4.311500,0.8,0.8,0.8
46.215500,72.693604,0.777400,0.8,0.8,0.8
51.550201,85.325500,3.200000,0.8,0.8,0.8
50.986198,77.702599,-1.144300,0.8,0.8,0.8
56.582100,73.663696,-1.315100,0.8,0.8,0.8
53.534199,77.274101,-1.291000,0.8,0.8,0.8
59.399700,74.980598,-0.084600,0.8,0.8,0.8
49.649601,70.543198,-1.317200,0.8,0.8,0.8
55.305801,76.508797,-1.290900,0.8,0.8,0.8
53.701302,73.328499,6.344600,0.8,0.8,0.8
58.869801,77.016800,4.160900,0.8,0.8,0.8
49.139000,73.997902,2.864900,0.8,0.8,0.8
55.102600,72.401802,0.488600,0.8,0.8,0.8
48.820099,70.310501,0.891800,0.8,0.8,0.8
55.081001,79.378700,-1.285300,0.8,0.8,0.8
58.212200,79.147102,1.366200,0.8,0.8,0.8
55.012798,72.846298,1.997100,0.8,0.8,0.8
53.984299,75.970100,-1.287800,0.8,0.8,0.8
50.926701,77.686203,-0.949500,0.8,0.8,0.8
55.078300,79.313797,-1.284300,0.8,0.8,0.8
52.441299,74.578300,6.811600,0.8,0.8,0.8
51.286499,74.520203,4.807000,0.8,0.8,0.8
46.613701,71.048599,7.935200,0.8,0.8,0.8
52.773899,72.942200,8.719100,0.8,0.8,0.8
58.685699,77.612602,4.257200,0.8,0.8,0.8
51.883499,77.950203,4.758800,0.8,0.8,0.8
46.848701,70.343399,-0.372100,0.8,0.8,0.8
50.849701,71.168198,-0.564600,0.8,0.8,0.8
55.504902,77.077499,-1.290400,0.8,0.8,0.8
58.886398,76.972504,3.831600,0.8,0.8,0.8
56.314701,75.387398,4.117200,0.8,0.8,0.8
48.161701,71.852898,8.718300,0.8,0.8,0.8
50.957802,76.961304,-1.310300,0.8,0.8,0.8
52.957901,78.266998,-0.219500,0.8,0.8,0.8
58.787399,77.291298,1.652800,0.8,0.8,0.8
57.321499,77.776604,4.206100,0.8,0.8,0.8
48.221401,76.873199,-0.282300,0.8,0.8,0.8
47.196999,70.016602,7.040300,0.8,0.8,0.8
52.610600,78.181702,0.921100,0.8,0.8,0.8
47.064201,73.446404,3.110000,0.8,0.8,0.8
53.084999,77.607597,-1.281300,0.8,0.8,0.8
54.068802,72.881104,-0.939400,0.8,0.8,0.8
57.293800,82.216103,-0.080600,0.8,0.8,0.8
53.348900,79.039803,3.841000,0.8,0.8,0.8
57.490898,73.805801,-1.309500,0.8,0.8,0.8
57.043800,72.369698,4.224400,0.8,0.8,0.8
50.243301,77.484001,0.328500,0.8,0.8,0.8
48.961800,76.584503,8.725700,0.8,0.8,0.8
58.759602,77.362503,3.486400,0.8,0.8,0.8
50.977699,70.556396,0.785500,0.8,0.8,0.8
52.153801,82.106300,-1.288100,0.8,0.8,0.8
54.094898,75.304604,4.160000,0.8,0.8,0.8
48.058998,72.625801,8.723100,0.8,0.8,0.8
59.037800,76.456299,4.210600,0.8,0.8,0.8
53.183399,71.389099,8.334200,0.8,0.8,0.8
46.226398,72.694000,3.067100,0.8,0.8,0.8
52.013901,81.199203,-1.290200,0.8,0.8,0.8
46.609798,71.340797,1.973700,0.8,0.8,0.8
53.687801,74.081902,-1.305300,0.8,0.8,0.8
52.013100,74.653503,4.440100,0.8,0.8,0.8
55.066799,71.737099,0.140800,0.8,0.8,0.8
52.039299,71.374298,5.506000,0.8,0.8,0.8
55.217800,77.351898,4.128400,0.8,0.8,0.8
51.975700,75.109497,8.378700,0.8,0.8,0.8
47.390701,72.296303,8.730000,0.8,0.8,0.8
54.150902,71.913498,1.006000,0.8,0.8,0.8
57.650600,80.032898,1.065600,0.8,0.8,0.8
47.796101,75.801903,8.723500,0.8,0.8,0.8
54.947498,80.447098,-1.152900,0.8,0.8,0.8
48.771500,75.370598,1.128000,0.8,0.8,0.8
53.036999,78.600998,-0.526900,0.8,0.8,0.8
54.186001,71.699799,8.334400,0.8,0.8,0.8
53.146801,81.598900,3.588500,0.8,0.8,0.8
54.914902,73.945999,4.204300,0.8,0.8,0.8
54.916801,71.876198,8.295300,0.8,0.8,0.8
52.626301,79.959702,2.568200,0.8,0.8,0.8
52.640598,73.197800,-1.304400,0.8,0.8,0.8
54.318802,72.145599,4.573300,0.8,0.8,0.8
54.873501,79.267998,-1.284400,0.8,0.8,0.8
46.808102,73.797600,3.290400,0.8,0.8,0.8
56.098900,78.767303,-1.153100,0.8,0.8,0.8
54.356300,75.914200,-1.292700,0.8,0.8,0.8
58.205502,79.232201,1.901900,0.8,0.8,0.8
50.610001,77.590698,0.240700,0.8,0.8,0.8
52.538601,78.159401,1.285500,0.8,0.8,0.8
56.359299,76.197502,4.116800,0.8,0.8,0.8
49.456699,76.033798,4.539700,0.8,0.8,0.8
56.041000,72.253098,-0.661700,0.8,0.8,0.8
46.646400,70.943901,7.569200,0.8,0.8,0.8
51.911499,74.707901,4.748900,0.8,0.8,0.8
53.168499,75.001198,4.440900,0.8,0.8,0.8
50.355000,74.495399,8.734400,0.8,0.8,0.8
50.733799,71.088600,4.577100,0.8,0.8,0.8
51.736599,71.390602,4.367000,0.8,0.8,0.8
53.563499,75.813499,4.152300,0.8,0.8,0.8
59.620098,74.472000,4.026500,0.8,0.8,0.8
58.242100,79.071503,3.444300,0.8,0.8,0.8
51.562199,71.332298,-0.650200,0.8,0.8,0.8
50.824501,70.866302,8.333100,0.8,0.8,0.8
59.721100,74.170601,-1.148700,0.8,0.8,0.8
59.135300,76.143501,4.133700,0.8,0.8,0.8
57.891899,75.484497,4.123800,0.8,0.8,0.8
50.719299,74.519302,1.502300,0.8,0.8,0.8
55.286201,73.504501,0.065600,0.8,0.8,0.8
52.242699,81.039299,-1.291100,0.8,0.8,0.8
54.336399,77.495102,4.121400,0.8,0.8,0.8
51.766899,81.983299,0.619200,0.8,0.8,0.8
48.714802,69.777000,1.853300,0.8,0.8,0.8
52.059799,75.017303,2.969700,0.8,0.8,0.8
48.050400,70.158302,3.658200,0.8,0.8,0.8
58.763699,77.375702,3.104800,0.8,0.8,0.8
58.771400,77.361900,0.070300,0.8,0.8,0.8
49.667198,77.316299,1.409200,0.8,0.8,0.8
50.385101,70.376900,7.922500,0.8,0.8,0.8
52.798000,84.012802,3.352900,0.8,0.8,0.8
52.224499,74.524101,4.708500,0.8,0.8,0.8
55.023998,80.035202,-1.292500,0.8,0.8,0.8
58.817001,77.141098,-0.961400,0.8,0.8,0.8
46.383202,73.042000,7.152900,0.8,0.8,0.8
53.596298,80.036003,3.747200,0.8,0.8,0.8
52.903099,78.273598,2.296000,0.8,0.8,0.8
52.419701,74.669502,3.802800,0.8,0.8,0.8
48.042599,70.158302,6.908000,0.8,0.8,0.8
47.832298,76.036598,0.075400,0.8,0.8,0.8
52.047298,72.000298,8.727900,0.8,0.8,0.8
47.847099,76.257599,-1.309000,0.8,0.8,0.8
50.536999,73.874100,-1.301900,0.8,0.8,0.8
52.773701,74.578903,-1.305200,0.8,0.8,0.8
53.096100,78.429100,2.682000,0.8,0.8,0.8
55.523701,72.861504,0.953400,0.8,0.8,0.8
55.468201,72.591400,6.560600,0.8,0.8,0.8
51.957001,71.500000,1.592400,0.8,0.8,0.8
45.866901,73.306602,-0.299200,0.8,0.8,0.8
47.365898,70.076302,8.717300,0.8,0.8,0.8
54.204300,75.795097,4.137600,0.8,0.8,0.8
48.519798,70.289902,7.572100,0.8,0.8,0.8
58.855801,75.631699,-1.301800,0.8,0.8,0.8
53.009201,77.864098,4.117300,0.8,0.8,0.8
52.410500,75.137901,4.976500,0.8,0.8,0.8
50.010101,77.479401,4.900800,0.8,0.8,0.8
57.657001,81.010597,2.011700,0.8,0.8,0.8
54.979900,82.362396,-0.979300,0.8,0.8,0.8
57.724499,80.845100,0.040300,0.8,0.8,0.8
56.109600,77.197304,-1.294200,0.8,0.8,0.8
47.413700,70.444504,8.719700,0.8,0.8,0.8
46.422798,72.858398,2.689000,0.8,0.8,0.8
53.059898,78.320999,2.123800,0.8,0.8,0.8
46.243801,75.097000,8.116400,0.8,0.8,0.8
55.696899,73.533203,4.197100,0.8,0.8,0.8
50.041901,73.866402,4.619500,0.8,0.8,0.8
55.579102,74.273399,4.165200,0.8,0.8,0.8
50.505299,88.596802,2.411500,0.8,0.8,0.8
51.827900,72.568802,8.726600,0.8,0.8,0.8
59.752499,73.817299,0.091200,0.8,0.8,0.8
46.439301,72.760902,2.472800,0.8,0.8,0.8
57.798000,80.561501,2.496500,0.8,0.8,0.8
57.776901,77.133202,4.178100,0.8,0.8,0.8
59.619499,73.777702,2.564700,0.8,0.8,0.8
48.404598,73.654800,4.952900,0.8,0.8,0.8
52.001301,71.359100,1.547800,0.8,0.8,0.8
54.031700,82.599899,-1.294400,0.8,0.8,0.8
52.647999,76.315903,4.744700,0.8,0.8,0.8
46.737900,70.663803,8.063500,0.8,0.8,0.8
50.750702,76.852600,8.726800,0.8,0.8,0.8
45.217400,75.381699,6.632400,0.8,0.8,0.8
50.495499,75.605698,1.374600,0.8,0.8,0.8
46.649399,71.240997,1.341800,0.8,0.8,0.8
48.685600,75.408096,8.726100,0.8,0.8,0.8
55.414799,76.599297,-1.291500,0.8,0.8,0.8
52.089001,83.648201,3.364600,0.8,0.8,0.8
52.603401,74.957298,3.295400,0.8,0.8,0.8
46.412201,72.760696,4.779900,0.8,0.8,0.8
49.507801,70.521004,0.942300,0.8,0.8,0.8
55.992802,75.443100,-1.292900,0.8,0.8,0.8
58.685299,76.627403,-0.448400,0.8,0.8,0.8
50.607101,71.011597,8.337500,0.8,0.8,0.8
48.535301,70.410202,1.621600,0.8,0.8,0.8
52.680099,78.212997,-1.111300,0.8,0.8,0.8
51.622101,71.900803,-1.302500,0.8,0.8,0.8
52.677299,72.998497,8.723800,0.8,0.8,0.8
50.743999,70.895897,1.193000,0.8,0.8,0.8
57.736099,79.758102,2.842500,0.8,0.8,0.8
46.465801,72.784302,5.430300,0.8,0.8,0.8
57.063599,76.294701,-1.295700,0.8,0.8,0.8
50.498901,70.375900,2.218400,0.8,0.8,0.8
58.040001,79.782898,0.700600,0.8,0.8,0.8
53.255199,73.590302,-0.777200,0.8,0.8,0.8
46.432499,72.763397,3.686400,0.8,0.8,0.8
59.709499,74.230003,-0.949700,0.8,0.8,0.8
46.719501,71.855499,8.725200,0.8,0.8,0.8
53.911800,73.116302,6.429700,0.8,0.8,0.8
48.259201,70.853798,8.717600,0.8,0.8,0.8
56.225101,78.464104,-0.313200,0.8,0.8,0.8
45.026001,76.015198,7.023000,0.8,0.8,0.8
55.858898,77.566498,4.146400,0.8,0.8,0.8
58.617802,77.838303,3.628900,0.8,0.8,0.8
45.116798,75.678703,-0.860600,0.8,0.8,0.8
51.244999,84.502998,-1.212000,0.8,0.8,0.8
46.601700,76.391800,4.236600,0.8,0.8,0.8
57.914001,78.331902,4.271800,0.8,0.8,0.8
45.303501,75.051102,3.436900,0.8,0.8,0.8
55.571301,75.039497,4.132500,0.8,0.8,0.8
55.449600,74.207100,-0.735800,0.8,0.8,0.8
50.017799,75.850601,1.116900,0.8,0.8,0.8
50.950901,77.522202,8.736600,0.8,0.8,0.8
53.089600,72.382202,8.729000,0.8,0.8,0.8
56.821201,78.503700,-0.276400,0.8,0.8,0.8
57.366402,81.561798,3.706700,0.8,0.8,0.8
49.184299,77.461601,8.228700,0.8,0.8,0.8
45.374699,73.944901,6.971400,0.8,0.8,0.8
48.238602,73.322601,4.620100,0.8,0.8,0.8
50.514999,75.740402,2.401000,0.8,0.8,0.8
51.105202,71.207703,8.382600,0.8,0.8,0.8
46.684700,74.051697,3.230600,0.8,0.8,0.8
55.561501,82.547302,3.586800,0.8,0.8,0.8
59.624599,73.778900,1.551100,0.8,0.8,0.8
58.429001,74.404900,4.124700,0.8,0.8,0.8
53.441002,74.993797,4.199200,0.8,0.8,0.8
53.836800,78.853897,3.861300,0.8,0.8,0.8
46.502399,71.399696,8.063800,0.8,0.8,0.8
50.741699,74.366600,4.522000,0.8,0.8,0.8
55.002399,72.361801,5.988400,0.8,0.8,0.8
59.163502,75.703300,2.037900,0.8,0.8,0.8
54.753502,72.521698,8.732000,0.8,0.8,0.8
51.983898,74.579903,-1.307500,0.8,0.8,0.8
58.327099,73.369102,1.876600,0.8,0.8,0.8
52.017799,77.664597,-1.291600,0.8,0.8,0.8
51.210098,84.644600,0.249400,0.8,0.8,0.8
53.160198,80.539398,-1.288300,0.8,0.8,0.8
46.300598,71.468002,-0.810200,0.8,0.8,0.8
46.762901,70.567497,6.890600,0.8,0.8,0.8
57.570202,76.208900,-1.297100,0.8,0.8,0.8
59.221001,75.795601,-0.942700,0.8,0.8,0.8
52.515598,72.969803,-1.302800,0.8,0.8,0.8
50.308701,75.663002,1.994100,0.8,0.8,0.8
52.106602,71.003998,2.141300,0.8,0.8,0.8
45.298500,76.022903,4.866800,0.8,0.8,0.8
45.240101,75.333199,2.058800,0.8,0.8,0.8
48.168400,70.188599,0.477800,0.8,0.8,0.8
53.568401,78.849701,3.858800,0.8,0.8,0.8
54.036400,76.371002,4.126700,0.8,0.8,0.8
46.430099,71.927902,2.208200,0.8,0.8,0.8
52.082001,72.500298,-0.555400,0.8,0.8,0.8
55.373402,78.758003,-1.289100,0.8,0.8,0.8
59.265499,73.671997,4.104000,0.8,0.8,0.8
55.843800,75.761002,4.114300,0.8,0.8,0.8
49.372799,75.783997,4.371800,0.8,0.8,0.8
50.571400,88.621399,-0.882700,0.8,0.8,0.8
56.070400,82.721603,2.040300,0.8,0.8,0.8
52.953602,77.328400,-1.282100,0.8,0.8,0.8
55.127499,82.409103,0.350600,0.8,0.8,0.8
53.215199,80.021698,3.745400,0.8,0.8,0.8
48.253101,73.607002,-1.294500,0.8,0.8,0.8
49.856098,76.226898,4.909700,0.8,0.8,0.8
57.322800,82.101196,0.517500,0.8,0.8,0.8
51.764198,71.405602,5.178200,0.8,0.8,0.8
59.234699,75.812500,-0.386000,0.8,0.8,0.8
57.976601,74.619003,-0.701200,0.8,0.8,0.8
55.988400,76.724602,-1.286000,0.8,0.8,0.8
53.312801,71.657700,1.210100,0.8,0.8,0.8
52.612000,87.420601,4.983800,0.8,0.8,0.8
49.680000,76.308701,4.726200,0.8,0.8,0.8
57.083698,82.706596,0.939500,0.8,0.8,0.8
59.744801,73.818604,1.040800,0.8,0.8,0.8
51.878601,82.413902,1.148100,0.8,0.8,0.8
49.490700,70.444199,8.332000,0.8,0.8,0.8
50.586498,86.628998,1.089900,0.8,0.8,0.8
52.555302,78.175697,3.825200,0.8,0.8,0.8
59.385300,74.153198,-1.304100,0.8,0.8,0.8
54.616699,81.308800,-0.824900,0.8,0.8,0.8
54.913898,72.202103,3.250800,0.8,0.8,0.8
48.980400,71.038498,-0.894700,0.8,0.8,0.8
55.712502,76.262703,4.116600,0.8,0.8,0.8
48.515099,70.302597,5.337000,0.8,0.8,0.8
48.328499,76.907501,2.301600,0.8,0.8,0.8
53.086700,71.340599,0.821600,0.8,0.8,0.8
57.856098,79.797501,0.066000,0.8,0.8,0.8
57.896999,73.398903,4.142900,0.8,0.8,0.8
48.248600,73.765404,2.994300,0.8,0.8,0.8
55.845699,76.696297,4.120800,0.8,0.8,0.8
47.853802,76.763199,-0.583600,0.8,0.8,0.8
53.969501,75.101997,4.171900,0.8,0.8,0.8
59.156300,75.699402,2.804300,0.8,0.8,0.8
53.243698,73.991600,5.144500,0.8,0.8,0.8
51.195202,81.902199,0.064300,0.8,0.8,0.8
51.554600,77.559097,-0.850300,0.8,0.8,0.8
52.300499,78.088097,-1.277400,0.8,0.8,0.8
57.227600,82.457397,2.282300,0.8,0.8,0.8
51.386902,74.560699,4.453300,0.8,0.8,0.8
51.895599,76.245102,4.941000,0.8,0.8,0.8
52.428001,80.632698,1.242100,0.8,0.8,0.8
50.829498,72.032402,-0.625400,0.8,0.8,0.8
51.307598,76.220001,8.326500,0.8,0.8,0.8
55.431400,73.384499,-0.668100,0.8,0.8,0.8
59.100601,75.899200,1.892500,0.8,0.8,0.8
51.043201,73.809799,4.883400,0.8,0.8,0.8
51.956299,74.442902,4.676300,0.8,0.8,0.8
47.653900,76.343399,-0.860800,0.8,0.8,0.8
55.329800,72.734200,-0.077200,0.8,0.8,0.8
56.548500,72.449501,4.585700,0.8,0.8,0.8
59.769798,74.033699,3.951500,0.8,0.8,0.8
59.629398,73.780602,0.491400,0.8,0.8,0.8
48.073101,76.391800,1.153800,0.8,0.8,0.8
57.310101,75.308998,4.120400,0.8,0.8,0.8
47.700802,74.909897,0.032500,0.8,0.8,0.8
46.656101,71.748299,8.623400,0.8,0.8,0.8
46.704498,70.794403,1.025300,0.8,0.8,0.8
51.923801,74.563599,-1.306700,0.8,0.8,0.8
46.180698,71.842400,-1.078900,0.8,0.8,0.8
58.448502,72.956398,2.398700,0.8,0.8,0.8
48.373699,76.364304,8.727400,0.8,0.8,0.8
49.738602,70.261597,-0.793300,0.8,0.8,0.8
49.591202,70.636902,5.887900,0.8,0.8,0.8
48.999599,77.106697,-0.764000,0.8,0.8,0.8
47.915100,71.413902,-0.758600,0.8,0.8,0.8
58.231499,72.787498,4.433700,0.8,0.8,0.8
52.390900,75.310097,-1.293800,0.8,0.8,0.8
55.750198,74.985199,0.809300,0.8,0.8,0.8
57.208000,74.328598,-1.313900,0.8,0.8,0.8
57.581001,81.261497,0.734300,0.8,0.8,0.8
46.398499,72.978203,7.049800,0.8,0.8,0.8
52.786900,74.341301,8.730800,0.8,0.8,0.8
49.616199,75.981003,1.107800,0.8,0.8,0.8
52.718102,74.888000,0.138100,0.8,0.8,0.8
52.403999,74.723999,-0.237000,0.8,0.8,0.8
47.636200,71.977402,-1.297000,0.8,0.8,0.8
50.943401,88.732903,-0.355600,0.8,0.8,0.8
46.063499,76.221497,2.218200,0.8,0.8,0.8
52.763802,79.514801,3.704600,0.8,0.8,0.8
58.925499,74.307198,-1.303000,0.8,0.8,0.8
52.346802,80.871201,3.063300,0.8,0.8,0.8
51.541199,88.913002,1.936900,0.8,0.8,0.8
55.002701,78.589302,3.905900,0.8,0.8,0.8
51.807598,83.296303,-1.289900,0.8,0.8,0.8
52.342300,74.556999,4.801600,0.8,0.8,0.8
53.474701,83.212502,3.442300,0.8,0.8,0.8
49.112598,77.274597,8.226200,0.8,0.8,0.8
53.809601,81.121902,3.648700,0.8,0.8,0.8
49.150700,74.590202,-1.197300,0.8,0.8,0.8
52.682899,73.719597,8.721600,0.8,0.8,0.8
55.415699,79.465897,-0.717500,0.8,0.8,0.8
47.513500,73.343102,8.216000,0.8,0.8,0.8
59.138802,76.162201,2.506600,0.8,0.8,0.8
46.454102,71.536003,6.062000,0.8,0.8,0.8
47.548000,73.704201,8.725800,0.8,0.8,0.8
59.517601,74.845703,3.811700,0.8,0.8,0.8
55.468700,73.534698,4.205400,0.8,0.8,0.8
46.690800,75.949203,3.131100,0.8,0.8,0.8
54.023399,83.442398,1.837000,0.8,0.8,0.8
57.378502,82.393799,2.700300,0.8,0.8,0.8
48.739799,69.939903,8.188500,0.8,0.8,0.8
56.337299,72.359802,8.339600,0.8,0.8,0.8
59.456001,74.725197,1.931400,0.8,0.8,0.8
56.354401,75.504097,4.116700,0.8,0.8,0.8
51.073502,77.734299,3.193600,0.8,0.8,0.8
49.034199,74.885498,-1.123200,0.8,0.8,0.8
52.765499,79.629402,0.388600,0.8,0.8,0.8
54.007099,83.489899,1.545000,0.8,0.8,0.8
54.800201,73.009102,-0.546400,0.8,0.8,0.8
49.654701,70.783897,8.724200,0.8,0.8,0.8
48.711399,70.174103,8.334100,0.8,0.8,0.8
47.666100,70.038101,2.191000,0.8,0.8,0.8
46.340401,72.117500,8.706900,0.8,0.8,0.8
51.061199,77.036598,1.310400,0.8,0.8,0.8
50.274399,88.527901,-0.061700,0.8,0.8,0.8
56.223598,73.807297,4.171100,0.8,0.8,0.8
51.426300,74.283501,4.602300,0.8,0.8,0.8
50.198299,75.461502,1.397400,0.8,0.8,0.8
46.306702,76.306000,-0.155400,0.8,0.8,0.8
49.397202,77.233498,1.899500,0.8,0.8,0.8
59.067402,75.977097,-0.494800,0.8,0.8,0.8
46.873299,71.025597,4.881500,0.8,0.8,0.8
55.211300,72.434097,0.384800,0.8,0.8,0.8
55.193501,72.438103,8.355200,0.8,0.8,0.8
55.360001,76.837303,4.118700,0.8,0.8,0.8
49.564800,77.278603,1.890700,0.8,0.8,0.8
57.105999,82.867401,3.682000,0.8,0.8,0.8
50.733501,77.688698,4.920300,0.8,0.8,0.8
57.048500,83.005402,-0.016400,0.8,0.8,0.8
52.454700,74.593697,8.707600,0.8,0.8,0.8
56.430401,75.835899,4.115700,0.8,0.8,0.8
50.062500,76.082497,4.906700,0.8,0.8,0.8
54.993198,71.970802,0.602100,0.8,0.8,0.8
46.292900,71.476196,-0.372000,0.8,0.8,0.8
52.882900,71.527496,0.825600,0.8,0.8,0.8
50.350300,88.550301,0.311600,0.8,0.8,0.8
58.219299,77.641899,4.218700,0.8,0.8,0.8
53.999401,73.084000,6.144800,0.8,0.8,0.8
51.848400,75.051399,2.578700,0.8,0.8,0.8
51.288898,76.535896,4.882400,0.8,0.8,0.8
54.470299,80.431297,-1.281900,0.8,0.8,0.8
57.118401,82.679604,1.476500,0.8,0.8,0.8
46.496899,75.951103,-1.089600,0.8,0.8,0.8
50.278599,72.903297,-1.301800,0.8,0.8,0.8
46.722401,70.711098,7.269300,0.8,0.8,0.8
59.642399,74.347702,3.957500,0.8,0.8,0.8
48.719299,69.808601,2.695700,0.8,0.8,0.8
48.791000,70.449799,4.575500,0.8,0.8,0.8
55.287899,72.461304,3.705900,0.8,0.8,0.8
51.566399,71.224899,1.786800,0.8,0.8,0.8
53.119202,71.811699,8.342400,0.8,0.8,0.8
56.866798,77.809700,-0.979600,0.8,0.8,0.8
46.734901,73.141602,8.549900,0.8,0.8,0.8
49.256699,75.275299,-0.631200,0.8,0.8,0.8
48.749802,75.665298,8.727600,0.8,0.8,0.8
45.706799,73.861099,1.411800,0.8,0.8,0.8
57.365799,74.203003,4.134600,0.8,0.8,0.8
53.740002,81.600700,-1.281200,0.8,0.8,0.8
47.676399,76.702202,-1.129300,0.8,0.8,0.8
48.695702,69.823303,-0.317700,0.8,0.8,0.8
59.499100,73.697701,1.140400,0.8,0.8,0.8
49.522499,74.102097,-0.179500,0.8,0.8,0.8
54.053299,80.754204,-1.284400,0.8,0.8,0.8
46.193501,72.347397,6.149500,0.8,0.8,0.8
57.059299,75.517502,4.118100,0.8,0.8,0.8
53.581402,73.310501,7.482600,0.8,0.8,0.8
59.396099,73.589203,0.778500,0.8,0.8,0.8
48.445801,72.513000,-1.300900,0.8,0.8,0.8
46.604801,74.093399,3.086100,0.8,0.8,0.8
52.772598,74.675697,2.206700,0.8,0.8,0.8
46.284199,76.287102,3.084500,0.8,0.8,0.8
49.921600,75.995796,4.907900,0.8,0.8,0.8
45.898300,73.268303,2.764000,0.8,0.8,0.8
56.232899,77.821800,4.169400,0.8,0.8,0.8
46.906200,70.144997,4.360100,0.8,0.8,0.8
51.963699,71.352699,5.205400,0.8,0.8,0.8
48.748402,77.036003,0.256400,0.8,0.8,0.8
53.410999,71.688904,0.887300,0.8,0.8,0.8
48.180199,73.675797,-0.009800,0.8,0.8,0.8
54.241699,72.797501,7.590600,0.8,0.8,0.8
54.806198,82.298103,-0.459800,0.8,0.8,0.8
56.393600,81.860603,3.644100,0.8,0.8,0.8
51.568199,85.182404,3.214300,0.8,0.8,0.8
49.940899,70.734299,5.126600,0.8,0.8,0.8
48.957401,74.296303,-1.075900,0.8,0.8,0.8
48.795700,70.112900,8.333200,0.8,0.8,0.8
56.701599,79.523499,3.877700,0.8,0.8,0.8
51.624500,77.623299,-1.025500,0.8,0.8,0.8
52.237701,75.071198,7.479100,0.8,0.8,0.8
52.210899,75.359802,5.961900,0.8,0.8,0.8
48.002998,70.144699,6.377000,0.8,0.8,0.8
51.921101,72.937302,-0.529100,0.8,0.8,0.8
58.904598,73.439796,2.856200,0.8,0.8,0.8
52.433800,88.141502,2.214600,0.8,0.8,0.8
48.006001,71.573700,-1.300600,0.8,0.8,0.8
52.139198,81.548599,1.570500,0.8,0.8,0.8
54.722500,79.978897,3.783500,0.8,0.8,0.8
54.089500,76.352699,-1.288000,0.8,0.8,0.8
57.040199,76.053200,-1.298800,0.8,0.8,0.8
53.019100,78.675301,3.399900,0.8,0.8,0.8
51.875801,76.809898,-1.301100,0.8,0.8,0.8
49.738998,72.115196,-1.305100,0.8,0.8,0.8
48.542702,70.395798,-0.512900,0.8,0.8,0.8
45.536999,76.179802,8.220400,0.8,0.8,0.8
56.558899,76.723602,-1.293300,0.8,0.8,0.8
54.605999,73.504898,-0.928700,0.8,0.8,0.8
55.684299,79.106697,-0.363900,0.8,0.8,0.8
47.996201,73.709702,-0.057200,0.8,0.8,0.8
45.449001,74.657799,6.762000,0.8,0.8,0.8
57.062401,74.118896,-1.315600,0.8,0.8,0.8
46.836201,70.321098,3.475600,0.8,0.8,0.8
48.590199,70.056198,8.176400,0.8,0.8,0.8
47.447601,69.975304,3.985800,0.8,0.8,0.8
51.647202,76.311401,8.364400,0.8,0.8,0.8
50.457600,74.073303,-1.302300,0.8,0.8,0.8
51.693401,72.689201,-0.776600,0.8,0.8,0.8
49.131001,76.361801,-1.302400,0.8,0.8,0.8
53.458801,85.077400,-0.117100,0.8,0.8,0.8
48.373600,76.918800,1.269200,0.8,0.8,0.8
58.725800,77.471001,1.847300,0.8,0.8,0.8
52.543999,78.160599,1.199500,0.8,0.8,0.8
54.520802,71.660301,4.440700,0.8,0.8,0.8
56.413898,80.297203,3.798900,0.8,0.8,0.8
58.513199,73.323601,1.919800,0.8,0.8,0.8
53.100800,74.192703,4.951200,0.8,0.8,0.8
50.801201,88.688599,1.874100,0.8,0.8,0.8
57.573601,81.321899,0.133800,0.8,0.8,0.8
55.397400,82.491302,1.905900,0.8,0.8,0.8
51.623100,71.350998,-0.061500,0.8,0.8,0.8
49.951698,73.815697,-1.297900,0.8,0.8,0.8
45.152500,73.596901,7.928800,0.8,0.8,0.8
50.340500,70.365402,7.981400,0.8,0.8,0.8
51.558601,83.470001,3.431500,0.8,0.8,0.8
57.974201,77.067101,-1.293300,0.8,0.8,0.8
58.467201,72.901100,2.160300,0.8,0.8,0.8
47.364498,74.340897,3.285400,0.8,0.8,0.8
55.591000,71.902496,3.243500,0.8,0.8,0.8
57.685398,74.263199,-0.659300,0.8,0.8,0.8
50.514900,86.882004,-0.911000,0.8,0.8,0.8
55.125301,75.050598,4.139700,0.8,0.8,0.8
46.851200,70.335602,0.725700,0.8,0.8,0.8
49.140202,75.951599,-1.300700,0.8,0.8,0.8
52.014999,85.370201,-1.287000,0.8,0.8,0.8
45.529999,72.903801,6.423600,0.8,0.8,0.8
59.593399,74.572800,3.929700,0.8,0.8,0.8
49.710701,75.308098,-1.292800,0.8,0.8,0.8
51.790699,86.964699,-1.289000,0.8,0.8,0.8
47.290501,71.978401,8.724900,0.8,0.8,0.8
51.661701,71.363503,0.504100,0.8,0.8,0.8
58.170799,74.564697,4.119400,0.8,0.8,0.8
50.069801,71.778999,8.717500,0.8,0.8,0.8
45.041500,75.916801,4.274100,0.8,0.8,0.8
51.550499,71.329803,1.114500,0.8,0.8,0.8
48.359798,73.851601,2.788800,0.8,0.8,0.8
58.044201,79.763603,2.423400,0.8,0.8,0.8
45.458199,73.135696,5.615000,0.8,0.8,0.8
50.442001,71.329201,-0.848000,0.8,0.8,0.8
46.523201,71.758598,-1.298100,0.8,0.8,0.8
45.771801,73.608704,3.590100,0.8,0.8,0.8
59.407398,73.889801,4.108200,0.8,0.8,0.8
47.039799,69.968597,5.199100,0.8,0.8,0.8
50.466202,73.991096,4.852000,0.8,0.8,0.8
52.138901,81.547997,1.704600,0.8,0.8,0.8
59.644402,74.477997,-0.720000,0.8,0.8,0.8
51.909199,76.151802,5.391600,0.8,0.8,0.8
52.109901,71.853798,-0.305200,0.8,0.8,0.8
51.300098,77.399498,8.382000,0.8,0.8,0.8
52.241199,75.460503,4.919600,0.8,0.8,0.8
45.234600,75.314796,2.890400,0.8,0.8,0.8
47.726299,74.457497,-0.240800,0.8,0.8,0.8
50.677399,70.427803,2.390800,0.8,0.8,0.8
58.842701,74.027397,4.122300,0.8,0.8,0.8
55.039200,72.805298,2.459200,0.8,0.8,0.8
50.532101,77.572701,3.387700,0.8,0.8,0.8
55.544998,72.065300,2.272500,0.8,0.8,0.8
52.362400,74.295403,-1.304900,0.8,0.8,0.8
46.206501,76.436600,8.232400,0.8,0.8,0.8
49.850498,77.371399,1.531800,0.8,0.8,0.8
52.906101,79.049599,0.919400,0.8,0.8,0.8
54.957001,82.337601,3.833200,0.8,0.8,0.8
54.907799,76.309502,-1.291700,0.8,0.8,0.8
49.620098,73.817101,-1.297900,0.8,0.8,0.8
53.443001,84.744499,4.985100,0.8,0.8,0.8
55.268002,74.704498,-0.450500,0.8,0.8,0.8
55.098400,71.702301,7.811200,0.8,0.8,0.8
46.850899,78.087097,8.726800,0.8,0.8,0.8
50.383701,74.472298,1.373800,0.8,0.8,0.8
48.215801,71.632797,8.718600,0.8,0.8,0.8
51.968498,89.043297,-0.872300,0.8,0.8,0.8
53.118599,76.547798,-1.282100,0.8,0.8,0.8
53.493698,74.744698,-1.300100,0.8,0.8,0.8
57.695000,73.939003,0.702900,0.8,0.8,0.8
53.133999,78.321404,-0.076100,0.8,0.8,0.8
52.035000,81.897797,2.455500,0.8,0.8,0.8
48.496498,76.954903,-0.635700,0.8,0.8,0.8
57.896900,74.595703,-1.144900,0.8,0.8,0.8
49.333599,72.297501,-1.302600,0.8,0.8,0.8
55.222301,75.339203,4.128300,0.8,0.8,0.8
49.126900,76.607300,0.986300,0.8,0.8,0.8
51.407902,70.581596,4.054300,0.8,0.8,0.8
51.161400,70.547096,-0.784300,0.8,0.8,0.8
53.702900,77.783302,3.943300,0.8,0.8,0.8
55.023602,72.778999,3.274200,0.8,0.8,0.8
59.106899,75.889503,2.401600,0.8,0.8,0.8
47.745602,72.839699,-1.297900,0.8,0.8,0.8
47.922199,70.113701,-0.706400,0.8,0.8,0.8
46.618698,71.333298,1.401400,0.8,0.8,0.8
55.358799,72.468498,4.575900,0.8,0.8,0.8
57.350800,75.158699,-0.940300,0.8,0.8,0.8
58.503300,78.161301,1.124600,0.8,0.8,0.8
57.734798,80.733704,3.711900,0.8,0.8,0.8
49.609299,76.457100,-1.301800,0.8,0.8,0.8
46.983398,74.240501,-0.232600,0.8,0.8,0.8
46.564701,76.474701,8.473500,0.8,0.8,0.8
51.015400,71.348297,8.723700,0.8,0.8,0.8
52.308701,80.980904,-1.290800,0.8,0.8,0.8
47.623699,72.995102,8.726100,0.8,0.8,0.8
58.760899,73.394798,3.045300,0.8,0.8,0.8
55.135799,76.620697,4.117100,0.8,0.8,0.8
52.434299,74.618500,3.404500,0.8,0.8,0.8
48.052101,70.153503,0.532000,0.8,0.8,0.8
52.103500,74.488899,4.529900,0.8,0.8,0.8
51.472500,83.744598,2.050100,0.8,0.8,0.8
49.873699,74.995598,-1.295400,0.8,0.8,0.8
50.618401,77.660896,4.631900,0.8,0.8,0.8
50.530499,70.913200,5.286400,0.8,0.8,0.8
56.622398,76.281502,4.121000,0.8,0.8,0.8
56.557201,76.651901,-1.293500,0.8,0.8,0.8
58.249298,79.051300,3.598000,0.8,0.8,0.8
51.875500,82.421799,0.334100,0.8,0.8,0.8
54.866798,77.601097,-1.288700,0.8,0.8,0.8
53.804699,73.282997,5.909100,0.8,0.8,0.8
54.023998,71.969002,5.177000,0.8,0.8,0.8
54.133499,71.621803,8.182000,0.8,0.8,0.8
54.895302,72.259201,4.186800,0.8,0.8,0.8
57.736698,74.930099,-1.301300,0.8,0.8,0.8
50.443699,76.868599,8.726600,0.8,0.8,0.8
52.415199,84.268600,3.317500,0.8,0.8,0.8
46.301800,71.470703,-0.882600,0.8,0.8,0.8
56.637901,77.989899,-1.298900,0.8,0.8,0.8
56.818298,75.498596,-1.298400,0.8,0.8,0.8
58.655201,77.710297,-0.038900,0.8,0.8,0.8
46.429100,71.623001,4.527800,0.8,0.8,0.8
53.464100,72.760399,-1.308400,0.8,0.8,0.8
50.189602,77.567802,8.399400,0.8,0.8,0.8
51.031898,75.768204,1.498900,0.8,0.8,0.8
45.629501,74.118698,6.768200,0.8,0.8,0.8
53.890202,71.927902,5.493900,0.8,0.8,0.8
49.930801,76.981903,-0.924700,0.8,0.8,0.8
50.471199,75.030296,-1.293000,0.8,0.8,0.8
55.302799,79.385399,3.849000,0.8,0.8,0.8
57.074200,77.585197,-0.544900,0.8,0.8,0.8
59.165901,75.974701,-0.073100,0.8,0.8,0.8
56.253201,78.467003,-0.441000,0.8,0.8,0.8
47.957401,74.828003,2.867500,0.8,0.8,0.8
58.565102,75.571899,-1.304200,0.8,0.8,0.8
51.699001,83.015701,-0.162000,0.8,0.8,0.8
58.655102,77.732903,-0.212000,0.8,0.8,0.8
51.626701,71.352898,0.435000,0.8,0.8,0.8
52.209000,70.900803,4.088200,0.8,0.8,0.8
48.427601,76.940399,4.018500,0.8,0.8,0.8
54.631599,80.953003,-0.394200,0.8,0.8,0.8
46.423000,71.634697,6.273600,0.8,0.8,0.8
57.754902,72.582199,4.328400,0.8,0.8,0.8
54.983002,72.010803,-1.021700,0.8,0.8,0.8
54.139198,74.376503,-1.291700,0.8,0.8,0.8
51.594501,73.932701,8.722500,0.8,0.8,0.8
49.848999,76.177399,1.354000,0.8,0.8,0.8
56.613800,72.745499,5.729300,0.8,0.8,0.8
47.363400,69.945198,5.600300,0.8,0.8,0.8
48.709801,73.457397,8.215600,0.8,0.8,0.8
58.525299,78.155602,3.391300,0.8,0.8,0.8
54.002399,74.467697,4.208800,0.8,0.8,0.8
51.396999,77.078300,-1.306100,0.8,0.8,0.8
45.835400,73.458900,0.882700,0.8,0.8,0.8
45.064301,75.810699,0.308700,0.8,0.8,0.8
52.762299,74.650101,2.389300,0.8,0.8,0.8
50.691200,74.340302,8.214700,0.8,0.8,0.8
52.696499,74.630203,-0.394900,0.8,0.8,0.8
45.556702,72.805199,7.675800,0.8,0.8,0.8
51.649799,71.358498,-1.022800,0.8,0.8,0.8
52.145401,72.210297,8.730400,0.8,0.8,0.8
48.957500,70.674400,-0.567200,0.8,0.8,0.8
57.389999,73.456100,4.150000,0.8,0.8,0.8
55.023899,72.764297,2.745500,0.8,0.8,0.8
49.908401,77.382599,0.164100,0.8,0.8,0.8
56.446701,80.351997,3.794200,0.8,0.8,0.8
48.342999,76.909798,-0.521400,0.8,0.8,0.8
55.528599,72.561501,6.907500,0.8,0.8,0.8
58.337002,76.864098,4.177500,0.8,0.8,0.8
55.646400,78.788300,3.907200,0.8,0.8,0.8
57.097698,75.942299,-1.296400,0.8,0.8,0.8
51.058800,71.323898,-0.534600,0.8,0.8,0.8
55.436001,78.763603,3.903200,0.8,0.8,0.8
56.990398,79.918404,3.851400,0.8,0.8,0.8
48.688000,76.326103,-1.304600,0.8,0.8,0.8
54.564602,74.312798,4.196500,0.8,0.8,0.8
57.648800,78.074303,-0.280200,0.8,0.8,0.8
55.025902,71.853401,1.760800,0.8,0.8,0.8
52.376202,78.120201,-0.605300,0.8,0.8,0.8
47.723900,73.164497,4.818000,0.8,0.8,0.8
58.829300,77.119301,1.061800,0.8,0.8,0.8
59.049099,73.673203,0.144100,0.8,0.8,0.8
54.450001,75.850800,-1.299100,0.8,0.8,0.8
47.569901,70.010399,5.923900,0.8,0.8,0.8
45.055698,75.834396,1.019900,0.8,0.8,0.8
54.551300,74.484200,-1.301000,0.8,0.8,0.8
52.793999,79.408096,-0.625100,0.8,0.8,0.8
55.120899,80.932503,3.697400,0.8,0.8,0.8
53.106899,78.406998,3.920800,0.8,0.8,0.8
51.791199,82.703102,0.407100,0.8,0.8,0.8
52.389198,74.743698,6.407600,0.8,0.8,0.8
52.233601,71.430199,5.339500,0.8,0.8,0.8
48.063499,76.928398,8.634900,0.8,0.8,0.8
53.212700,77.871597,-1.290000,0.8,0.8,0.8
52.260601,81.158203,2.264100,0.8,0.8,0.8
57.202000,75.557098,4.120100,0.8,0.8,0.8
54.650101,72.272499,8.658900,0.8,0.8,0.8
50.795399,73.730598,-1.301500,0.8,0.8,0.8
52.361500,74.837402,6.692900,0.8,0.8,0.8
51.297401,71.151299,5.551700,0.8,0.8,0.8
58.860199,77.046097,0.942600,0.8,0.8,0.8
57.487701,81.525497,3.396000,0.8,0.8,0.8
47.882999,76.762802,-1.137000,0.8,0.8,0.8
48.096401,76.836304,-0.012500,0.8,0.8,0.8
59.767399,73.829002,3.995700,0.8,0.8,0.8
57.173698,83.031700,2.345900,0.8,0.8,0.8
45.543499,74.381599,1.781500,0.8,0.8,0.8
47.358799,73.936096,8.732400,0.8,0.8,0.8
46.437302,71.584198,5.196300,0.8,0.8,0.8
55.993999,72.439598,-0.553300,0.8,0.8,0.8
56.168301,73.044998,0.802400,0.8,0.8,0.8
48.345501,70.402496,8.722700,0.8,0.8,0.8
55.882099,78.439598,3.941900,0.8,0.8,0.8
48.743999,71.045799,8.721700,0.8,0.8,0.8
57.801498,80.542702,2.130200,0.8,0.8,0.8
47.527901,71.326401,-1.134000,0.8,0.8,0.8
57.244099,77.949501,4.215400,0.8,0.8,0.8
49.009102,77.114304,-0.838400,0.8,0.8,0.8
49.735699,70.183800,7.945800,0.8,0.8,0.8
47.149700,72.993202,8.530400,0.8,0.8,0.8
54.967300,72.184196,7.012200,0.8,0.8,0.8
51.691101,88.957603,2.613100,0.8,0.8,0.8
49.960499,72.355301,-1.304200,0.8,0.8,0.8
52.738899,78.224197,2.423000,0.8,0.8,0.8
51.760101,82.793503,2.914800,0.8,0.8,0.8
51.678398,88.956200,-0.353600,0.8,0.8,0.8
50.501202,74.096703,4.436500,0.8,0.8,0.8
49.315899,76.389198,-1.302200,0.8,0.8,0.8
57.756901,79.767998,-0.205100,0.8,0.8,0.8
59.128502,74.194702,4.117600,0.8,0.8,0.8
53.136501,79.204002,3.820600,0.8,0.8,0.8
49.191502,70.627296,8.490700,0.8,0.8,0.8
50.296101,71.468002,8.719300,0.8,0.8,0.8
48.159698,76.859596,3.803100,0.8,0.8,0.8
50.498100,86.912300,0.717800,0.8,0.8,0.8
57.047401,77.622902,-0.626400,0.8,0.8,0.8
55.393101,72.468498,1.691300,0.8,0.8,0.8
51.414398,77.391602,1.421400,0.8,0.8,0.8
54.799900,72.870903,4.680000,0.8,0.8,0.8
50.276798,70.839600,5.372500,0.8,0.8,0.8
50.387299,75.233101,-1.293300,0.8,0.8,0.8
49.026600,75.961197,4.195200,0.8,0.8,0.8
52.650398,74.617401,0.067200,0.8,0.8,0.8
46.546700,71.544800,2.685200,0.8,0.8,0.8
59.498699,73.698502,1.067500,0.8,0.8,0.8
56.967400,82.487801,3.594400,0.8,0.8,0.8
58.607300,76.765198,-1.292100,0.8,0.8,0.8
51.202599,71.472801,-0.537400,0.8,0.8,0.8
46.549198,76.055702,-0.921600,0.8,0.8,0.8
49.088699,74.164497,2.391400,0.8,0.8,0.8
46.160999,72.453300,2.964100,0.8,0.8,0.8
52.449699,74.563698,2.136200,0.8,0.8,0.8
46.469898,71.499397,5.782600,0.8,0.8,0.8
55.284500,77.780998,4.137400,0.8,0.8,0.8
50.239201,74.726402,-1.295700,0.8,0.8,0.8
55.998402,74.078598,-1.316600,0.8,0.8,0.8
50.450600,71.505096,-0.887100,0.8,0.8,0.8
50.217899,75.916199,1.211000,0.8,0.8,0.8
46.584099,75.300697,8.726100,0.8,0.8,0.8
49.541302,70.736702,8.348400,0.8,0.8,0.8
47.314602,70.050797,7.816800,0.8,0.8,0.8
50.969200,85.413696,-0.045600,0.8,0.8,0.8
59.576599,74.630600,3.942900,0.8,0.8,0.8
45.185501,75.469704,1.452500,0.8,0.8,0.8
58.156200,79.382103,0.698600,0.8,0.8,0.8
49.195801,72.033600,8.719000,0.8,0.8,0.8
45.846802,75.865303,8.727900,0.8,0.8,0.8
50.387402,70.991096,8.420200,0.8,0.8,0.8
45.950699,73.143700,-0.464100,0.8,0.8,0.8
56.431099,75.343102,4.116900,0.8,0.8,0.8
48.360500,73.358498,4.727700,0.8,0.8,0.8
53.042500,78.321602,-0.867500,0.8,0.8,0.8
55.457699,79.435799,-0.998000,0.8,0.8,0.8
51.695202,73.805397,-1.305000,0.8,0.8,0.8
49.167599,73.347000,8.722400,0.8,0.8,0.8
57.357899,73.652802,-1.310800,0.8,0.8,0.8
48.967800,75.170998,-1.125800,0.8,0.8,0.8
52.686901,71.231300,4.589200,0.8,0.8,0.8
57.507599,80.341103,3.829300,0.8,0.8,0.8
58.737499,77.453400,2.785600,0.8,0.8,0.8
51.592999,71.342003,0.493200,0.8,0.8,0.8
53.948299,73.004700,7.200500,0.8,0.8,0.8
48.108200,75.227699,8.723400,0.8,0.8,0.8
58.442402,73.305496,2.635200,0.8,0.8,0.8
45.215698,75.397697,3.202800,0.8,0.8,0.8
55.790001,79.808800,3.826800,0.8,0.8,0.8
56.190399,75.101601,4.121900,0.8,0.8,0.8
51.122601,73.935303,8.718300,0.8,0.8,0.8
49.931900,71.025497,8.720800,0.8,0.8,0.8
59.311298,73.567703,2.465200,0.8,0.8,0.8
53.175098,72.694000,-1.302400,0.8,0.8,0.8
53.053799,78.549004,-0.920100,0.8,0.8,0.8
52.875599,73.954498,-1.306700,0.8,0.8,0.8
56.846500,73.339500,4.164200,0.8,0.8,0.8
57.607300,80.152802,3.854000,0.8,0.8,0.8
46.402000,71.702599,5.260000,0.8,0.8,0.8
49.791401,73.791801,4.587600,0.8,0.8,0.8
51.535999,88.916901,1.046600,0.8,0.8,0.8
55.216499,80.328598,0.069000,0.8,0.8,0.8
51.321800,77.870499,4.637400,0.8,0.8,0.8
51.229198,77.777397,0.996200,0.8,0.8,0.8
56.388802,82.822998,3.572400,0.8,0.8,0.8
55.850899,74.785500,4.136200,0.8,0.8,0.8
51.538200,82.008003,-0.439000,0.8,0.8,0.8
53.535702,73.446404,6.714400,0.8,0.8,0.8
51.662300,72.191399,-0.713300,0.8,0.8,0.8
47.569099,77.851501,8.730000,0.8,0.8,0.8
48.208000,70.203102,2.371300,0.8,0.8,0.8
55.614498,73.648399,4.196000,0.8,0.8,0.8
52.703999,74.921303,2.545600,0.8,0.8,0.8
47.399502,70.665199,-1.292500,0.8,0.8,0.8
45.456100,74.633003,5.931100,0.8,0.8,0.8
48.358200,70.347000,2.037400,0.8,0.8,0.8
48.683498,75.213097,3.644900,0.8,0.8,0.8
51.619598,88.935699,3.074200,0.8,0.8,0.8
50.573101,74.002502,-1.303900,0.8,0.8,0.8
58.670601,76.691803,-1.062000,0.8,0.8,0.8
54.062801,74.128998,4.392500,0.8,0.8,0.8
55.885700,82.657204,2.457600,0.8,0.8,0.8
