x,y,z,r,g,b
48.3929,72.613,-1.3004,0.8,0.8,0.8
52.9522,77.3263,-0.8196,0.8,0.8,0.8
55.4195,79.9382,3.8033,0.8,0.8,0.8
52.5495,80.2099,0.9231,0.8,0.8,0.8
47.9292,70.9754,-0.5553,0.8,0.8,0.8
57.6043,75.8073,4.1263,0.8,0.8,0.8
55.1045,74.491,-0.2326,0.8,0.8,0.8
55.0558,72.8658,2.8221,0.8,0.8,0.8
54.4257,72.7936,6.9697,0.8,0.8,0.8
51.9101,89.0246,2.2324,0.8,0.8,0.8
55.833,78.9124,-0.2925,0.8,0.8,0.8
47.1815,70.0117,-0.447,0.8,0.8,0.8
52.871,85.5979,4.6005,0.8,0.8,0.8
57.136,82.716,-0.1546,0.8,0.8,0.8
51.5368,75.2656,-1.2998,0.8,0.8,0.8
58.775,77.3303,4.5168,0.8,0.8,0.8
51.727,81.9747,0.0875,0.8,0.8,0.8
58.8826,76.9944,0.9475,0.8,0.8,0.8
51.3859,76.4927,8.7257,0.8,0.8,0.8
54.1956,72.1373,8.4666,0.8,0.8,0.8
52.0206,75.9212,5.0281,0.8,0.8,0.8
51.1383,84.8456,1.9202,0.8,0.8,0.8
51.6127,76.8989,6.463,0.8,0.8,0.8
54.883,79.1932,3.8561,0.8,0.8,0.8
49.5441,77.2713,-0.2275,0.8,0.8,0.8
53.6496,75.664,-1.2894,0.8,0.8,0.8
57.6454,74.3939,-1.2216,0.8,0.8,0.8
51.0507,71.0717,5.1775,0.8,0.8,0.8
49.0385,77.1237,0.1978,0.8,0.8,0.8
54.3953,73.7875,-0.8988,0.8,0.8,0.8
50.8077,75.5548,-1.2987,0.8,0.8,0.8
49.2996,71.7211,-1.3052,0.8,0.8,0.8
51.3509,77.7862,0.7905,0.8,0.8,0.8
55.2658,72.45,0.2781,0.8,0.8,0.8
54.1671,80.8092,3.6825,0.8,0.8,0.8
59.2607,75.3729,1.5586,0.8,0.8,0.8
56.0151,72.4541,8.3667,0.8,0.8,0.8
46.3291,71.9424,5.4933,0.8,0.8,0.8
46.9538,70.0255,0.2477,0.8,0.8,0.8
53.6948,74.5707,4.5703,0.8,0.8,0.8
49.5732,73.0915,8.7199,0.8,0.8,0.8
54.8045,73.5132,3.7395,0.8,0.8,0.8
53.8334,76.3435,-1.286,0.8,0.8,0.8
49.2136,77.1765,0.5069,0.8,0.8,0.8
46.195,72.3606,5.4031,0.8,0.8,0.8
48.8582,76.4535,-0.9926,0.8,0.8,0.8
51.3153,88.8516,0.9745,0.8,0.8,0.8
48.7164,70.8792,-0.7643,0.8,0.8,0.8
58.752,74.3472,4.1249,0.8,0.8,0.8
46.1639,72.4579,7.8186,0.8,0.8,0.8
56.3914,82.8249,3.7505,0.8,0.8,0.8
52.4575,73.7312,8.7231,0.8,0.8,0.8
56.3221,82.8092,1.1946,0.8,0.8,0.8
54.0967,76.9821,4.1211,0.8,0.8,0.8
56.6067,76.5697,4.126,0.8,0.8,0.8
46.4241,74.3642,-0.1014,0.8,0.8,0.8
52.9916,78.0704,-1.2903,0.8,0.8,0.8
57.8386,74.3921,4.1234,0.8,0.8,0.8
47.5164,71.398,8.4127,0.8,0.8,0.8
53.0414,84.1156,3.3489,0.8,0.8,0.8
51.327,74.8876,8.7304,0.8,0.8,0.8
58.6784,77.6104,1.0613,0.8,0.8,0.8
53.0046,78.7311,1.2546,0.8,0.8,0.8
53.0767,85.6621,4.6598,0.8,0.8,0.8
57.6186,81.1325,1.9951,0.8,0.8,0.8
46.4722,71.4791,6.287,0.8,0.8,0.8
57.3889,81.8986,0.2699,0.8,0.8,0.8
53.668,74.1334,4.9303,0.8,0.8,0.8
46.6156,71.3293,2.5499,0.8,0.8,0.8
47.6136,70.0228,6.4672,0.8,0.8,0.8
53.1262,74.753,4.6047,0.8,0.8,0.8
56.321,77.6354,-1.2985,0.8,0.8,0.8
53.9401,74.4192,4.2139,0.8,0.8,0.8
57.6993,80.2641,-0.0696,0.8,0.8,0.8
56.5095,79.7539,-0.2755,0.8,0.8,0.8
48.1099,75.4414,3.4098,0.8,0.8,0.8
45.5296,72.9101,6.1515,0.8,0.8,0.8
47.5185,74.1395,8.7364,0.8,0.8,0.8
52.166,71.5297,4.947,0.8,0.8,0.8
47.807,70.0855,8.2684,0.8,0.8,0.8
49.153,77.1579,0.169,0.8,0.8,0.8
51.9262,82.2536,-0.7942,0.8,0.8,0.8
50.9253,77.6881,3.662,0.8,0.8,0.8
56.2094,73.8028,4.1709,0.8,0.8,0.8
54.2326,79.3306,-1.2832,0.8,0.8,0.8
49.1489,70.4147,0.8671,0.8,0.8,0.8
52.9233,78.28,2.4089,0.8,0.8,0.8
58.908,76.8896,-0.2938,0.8,0.8,0.8
52.6811,75.6849,-1.2954,0.8,0.8,0.8
52.012,81.9836,1.1669,0.8,0.8,0.8
55.0072,72.5164,8.7228,0.8,0.8,0.8
52.2407,81.2211,2.0499,0.8,0.8,0.8
45.7276,75.7419,8.381,0.8,0.8,0.8
46.2329,77.6898,8.7284,0.8,0.8,0.8
53.1579,76.4818,-1.2834,0.8,0.8,0.8
56.7719,77.8519,-1.298,0.8,0.8,0.8
51.5987,72.9324,8.7218,0.8,0.8,0.8
56.1774,82.7618,0.272,0.8,0.8,0.8
54.1116,71.3484,-0.1708,0.8,0.8,0.8
46.7308,70.9058,1.9224,0.8,0.8,0.8
56.5384,81.903,3.6404,0.8,0.8,0.8
51.3986,77.4712,1.3254,0.8,0.8,0.8
56.9378,77.7356,-0.9855,0.8,0.8,0.8
49.1467,75.1943,2.0171,0.8,0.8,0.8
55.4496,74.2071,-0.7358,0.8,0.8,0.8
51.7401,77.9325,-0.4216,0.8,0.8,0.8
49.2593,77.1965,0.9787,0.8,0.8,0.8
46.0597,72.2233,-1.1159,0.8,0.8,0.8
50.242,77.4832,0.1044,0.8,0.8,0.8
51.7014,76.4148,4.8738,0.8,0.8,0.8
48.3225,73.8199,-0.7651,0.8,0.8,0.8
53.1839,72.8525,-1.3083,0.8,0.8,0.8
49.9553,74.222,3.0266,0.8,0.8,0.8
52.2811,81.0876,3.5034,0.8,0.8,0.8
58.6909,77.6262,0.0685,0.8,0.8,0.8
56.6771,81.6304,3.666,0.8,0.8,0.8
52.9708,74.2938,5.3415,0.8,0.8,0.8
58.3749,73.213,3.6842,0.8,0.8,0.8
56.9234,74.5093,4.129,0.8,0.8,0.8
55.8624,78.9227,-0.5423,0.8,0.8,0.8
51.7726,76.3066,7.2741,0.8,0.8,0.8
45.8678,73.3591,4.1364,0.8,0.8,0.8
48.594,75.9139,-1.3007,0.8,0.8,0.8
56.6285,76.2181,4.1198,0.8,0.8,0.8
52.7416,74.7851,3.0023,0.8,0.8,0.8
52.1349,73.8498,-1.3031,0.8,0.8,0.8
54.1457,72.0082,5.5982,0.8,0.8,0.8
46.5384,71.5583,2.0488,0.8,0.8,0.8
49.0742,76.7242,-1.0942,0.8,0.8,0.8
59.5564,73.7545,-0.3759,0.8,0.8,0.8
50.1872,76.4737,5.0686,0.8,0.8,0.8
52.131,70.909,2.901,0.8,0.8,0.8
46.7173,73.9546,3.1636,0.8,0.8,0.8
51.1127,74.1918,8.6623,0.8,0.8,0.8
47.9357,71.3291,-1.2971,0.8,0.8,0.8
49.1426,75.377,-0.6653,0.8,0.8,0.8
49.0598,75.8309,-1.2998,0.8,0.8,0.8
53.6801,73.259,6.843,0.8,0.8,0.8
52.0451,71.3765,5.7117,0.8,0.8,0.8
52.327,75.1827,-1.3067,0.8,0.8,0.8
53.7568,77.0652,4.1237,0.8,0.8,0.8
51.6296,83.2407,0.5731,0.8,0.8,0.8
48.8749,74.2339,8.7228,0.8,0.8,0.8
51.5898,74.4328,-1.3044,0.8,0.8,0.8
54.7113,76.4906,4.1194,0.8,0.8,0.8
46.9636,69.9449,8.2163,0.8,0.8,0.8
51.4386,71.0087,4.5749,0.8,0.8,0.8
49.8849,71.6331,-1.304,0.8,0.8,0.8
55.0222,71.8711,2.3542,0.8,0.8,0.8
46.3117,72.0328,-0.1069,0.8,0.8,0.8
52.254,81.4531,-1.2877,0.8,0.8,0.8
52.8715,78.2626,1.6204,0.8,0.8,0.8
53.858,74.7501,4.2002,0.8,0.8,0.8
53.5398,81.0082,-1.2836,0.8,0.8,0.8
48.3318,71.8414,-1.2991,0.8,0.8,0.8
46.8552,70.3047,0.954,0.8,0.8,0.8
53.3901,71.7778,5.1586,0.8,0.8,0.8
53.8734,73.893,4.8958,0.8,0.8,0.8
52.2262,78.0685,1.1361,0.8,0.8,0.8
50.2844,77.5004,2.6025,0.8,0.8,0.8
49.214,75.4475,8.7269,0.8,0.8,0.8
52.4256,74.9085,4.7065,0.8,0.8,0.8
49.1325,74.6689,-1.1284,0.8,0.8,0.8
57.2814,82.2673,-0.085,0.8,0.8,0.8
58.3457,77.0901,4.1892,0.8,0.8,0.8
50.5348,71.0261,4.8866,0.8,0.8,0.8
52.6594,76.7981,-1.2903,0.8,0.8,0.8
57.3921,82.4727,1.834,0.8,0.8,0.8
50.8984,85.636,-0.2291,0.8,0.8,0.8
45.7238,73.8405,2.0245,0.8,0.8,0.8
48.031,74.5922,-0.5935,0.8,0.8,0.8
48.4313,76.6422,1.1675,0.8,0.8,0.8
58.045,79.7573,1.7842,0.8,0.8,0.8
45.4952,76.0498,1.1443,0.8,0.8,0.8
46.4241,72.3562,4.8899,0.8,0.8,0.8
54.1036,79.2757,3.8313,0.8,0.8,0.8
46.2335,72.1857,3.6269,0.8,0.8,0.8
52.4355,78.1374,-0.6774,0.8,0.8,0.8
53.4761,73.3649,7.7698,0.8,0.8,0.8
52.3794,80.769,2.8275,0.8,0.8,0.8
51.6944,74.3546,4.9649,0.8,0.8,0.8
56.7003,75.6777,-1.2992,0.8,0.8,0.8
57.3592,81.9701,3.6236,0.8,0.8,0.8
57.5678,74.5359,-1.3008,0.8,0.8,0.8
57.3331,76.8961,-1.2933,0.8,0.8,0.8
45.6609,74.8484,8.6101,0.8,0.8,0.8
46.4184,76.3289,2.9117,0.8,0.8,0.8
59.4468,74.7554,2.3411,0.8,0.8,0.8
47.9059,75.1088,1.0393,0.8,0.8,0.8
49.8734,75.1711,-1.2939,0.8,0.8,0.8
56.5439,82.8835,-0.085,0.8,0.8,0.8
59.1618,75.6805,1.2752,0.8,0.8,0.8
46.2847,75.0473,8.1402,0.8,0.8,0.8
55.6033,79.754,-0.0999,0.8,0.8,0.8
48.2424,76.8782,-0.9365,0.8,0.8,0.8
49.673,75.6826,0.9865,0.8,0.8,0.8
52.7398,76.3312,4.1464,0.8,0.8,0.8
47.5327,72.6592,-1.2962,0.8,0.8,0.8
50.6181,74.0352,4.9836,0.8,0.8,0.8
45.4622,74.6532,2.4904,0.8,0.8,0.8
55.2963,74.6423,-1.0355,0.8,0.8,0.8
50.3269,76.3973,8.7286,0.8,0.8,0.8
52.0618,89.0692,3.4563,0.8,0.8,0.8
58.4799,76.5969,-1.2952,0.8,0.8,0.8
54.3449,71.8133,-1.0433,0.8,0.8,0.8
45.2524,75.2694,-0.0681,0.8,0.8,0.8
48.592,72.0919,-1.3004,0.8,0.8,0.8
58.1337,79.4608,1.3409,0.8,0.8,0.8
54.1483,81.2911,-1.2834,0.8,0.8,0.8
50.5811,88.6178,2.4854,0.8,0.8,0.8
49.2651,76.1636,4.3767,0.8,0.8,0.8
48.1955,70.2013,2.7727,0.8,0.8,0.8
53.6513,73.1202,-0.8499,0.8,0.8,0.8
58.4207,74.7075,-0.3889,0.8,0.8,0.8
49.9714,75.6912,8.7255,0.8,0.8,0.8
53.9294,83.7224,0.4053,0.8,0.8,0.8
45.9725,72.4771,-0.6183,0.8,0.8,0.8
58.6537,76.714,2.6794,0.8,0.8,0.8
46.4866,74.6638,-0.3906,0.8,0.8,0.8
51.2501,76.0332,-1.2996,0.8,0.8,0.8
57.202,82.5097,-0.1968,0.8,0.8,0.8
56.1371,74.897,-1.303,0.8,0.8,0.8
45.1871,75.4715,-0.5877,0.8,0.8,0.8
57.2194,81.4152,3.7112,0.8,0.8,0.8
47.8393,76.397,-1.1527,0.8,0.8,0.8
52.6457,74.6163,2.9871,0.8,0.8,0.8
59.4923,73.7128,-0.1564,0.8,0.8,0.8
52.1831,75.5344,5.1964,0.8,0.8,0.8
52.0377,75.6869,6.2703,0.8,0.8,0.8
50.9553,85.4361,-0.7203,0.8,0.8,0.8
45.3572,74.9475,6.2331,0.8,0.8,0.8
51.6423,71.8061,-0.4889,0.8,0.8,0.8
59.1012,75.8492,0.8858,0.8,0.8,0.8
53.26,71.7261,4.5745,0.8,0.8,0.8
52.6046,76.3346,4.9702,0.8,0.8,0.8
53.8506,72.9847,8.0333,0.8,0.8,0.8
52.1716,74.5124,-1.3069,0.8,0.8,0.8
45.4071,73.1431,7.7788,0.8,0.8,0.8
49.8356,70.2075,8.1437,0.8,0.8,0.8
55.1437,79.9346,-0.8243,0.8,0.8,0.8
54.3735,74.3449,-1.3,0.8,0.8,0.8
47.196,76.5664,2.3086,0.8,0.8,0.8
46.2392,72.2345,8.5711,0.8,0.8,0.8
58.2614,79.0334,1.2289,0.8,0.8,0.8
48.8166,70.0975,8.3343,0.8,0.8,0.8
52.5053,80.3514,-0.508,0.8,0.8,0.8
48.1912,76.5636,8.7338,0.8,0.8,0.8
50.9701,70.452,2.2013,0.8,0.8,0.8
58.6512,75.7885,4.1391,0.8,0.8,0.8
45.2606,77.4313,8.726,0.8,0.8,0.8
46.7763,70.5474,4.4146,0.8,0.8,0.8
47.6611,70.0373,2.3277,0.8,0.8,0.8
57.9525,72.7812,4.5174,0.8,0.8,0.8
51.7719,71.4084,5.4444,0.8,0.8,0.8
48.6879,69.8503,0.7706,0.8,0.8,0.8
58.664,76.6945,0.477,0.8,0.8,0.8
50.6841,71.9608,-1.2464,0.8,0.8,0.8
54.2126,73.0176,5.0281,0.8,0.8,0.8
59.191,75.6178,2.2498,0.8,0.8,0.8
51.2915,84.3397,0.9873,0.8,0.8,0.8
49.1628,75.5095,1.6146,0.8,0.8,0.8
48.5332,76.6794,8.7305,0.8,0.8,0.8
55.7445,82.6078,3.711,0.8,0.8,0.8
55.1322,80.0146,-1.1261,0.8,0.8,0.8
51.8078,82.691,-1.2899,0.8,0.8,0.8
48.0683,73.7422,-0.632,0.8,0.8,0.8
56.5698,78.4892,-0.2494,0.8,0.8,0.8
47.0708,69.9759,6.1607,0.8,0.8,0.8
59.1992,73.5333,1.9049,0.8,0.8,0.8
50.2828,71.5344,8.7177,0.8,0.8,0.8
53.0666,78.9593,-1.2885,0.8,0.8,0.8
53.6489,71.4912,-0.7844,0.8,0.8,0.8
57.7044,80.8644,2.1556,0.8,0.8,0.8
52.0841,71.0824,1.8247,0.8,0.8,0.8
52.6942,74.9724,4.4238,0.8,0.8,0.8
51.3818,70.6709,4.0684,0.8,0.8,0.8
49.8764,72.1359,-1.3051,0.8,0.8,0.8
53.0142,71.6638,5.2131,0.8,0.8,0.8
51.093,75.063,-1.2973,0.8,0.8,0.8
57.027,82.9885,1.1335,0.8,0.8,0.8
52.3228,84.3432,3.3091,0.8,0.8,0.8
59.4151,74.8663,2.235,0.8,0.8,0.8
46.434,71.9185,3.0158,0.8,0.8,0.8
58.8922,76.9407,2.8183,0.8,0.8,0.8
56.9783,75.579,-1.298,0.8,0.8,0.8
52.7335,71.5792,5.4855,0.8,0.8,0.8
51.5462,72.0139,3.4967,0.8,0.8,0.8
46.5463,71.2206,0.9147,0.8,0.8,0.8
54.9694,73.6408,4.2151,0.8,0.8,0.8
58.5302,78.1235,1.2637,0.8,0.8,0.8
56.8566,77.1099,-1.2921,0.8,0.8,0.8
46.3186,72.2925,2.1394,0.8,0.8,0.8
47.9715,74.6231,-0.5186,0.8,0.8,0.8
59.024,76.4987,3.768,0.8,0.8,0.8
47.9138,72.5533,-1.2997,0.8,0.8,0.8
47.4121,72.7258,8.7273,0.8,0.8,0.8
53.4991,73.8846,-1.305,0.8,0.8,0.8
50.9071,77.6759,4.2175,0.8,0.8,0.8
51.9119,74.2919,8.7245,0.8,0.8,0.8
57.2223,80.7708,3.7764,0.8,0.8,0.8
50.9443,76.2239,4.875,0.8,0.8,0.8
51.3995,72.3695,-1.2987,0.8,0.8,0.8
56.3564,78.3476,-0.4314,0.8,0.8,0.8
48.9055,69.9362,7.8982,0.8,0.8,0.8
55.3269,73.5903,0.0324,0.8,0.8,0.8
52.7261,79.6383,3.6729,0.8,0.8,0.8
50.6487,88.6453,0.8313,0.8,0.8,0.8
54.9614,73.0423,3.4723,0.8,0.8,0.8
59.202,75.4913,0.8337,0.8,0.8,0.8
49.0765,70.1152,8.2548,0.8,0.8,0.8
46.7101,76.4214,0.818,0.8,0.8,0.8
53.4146,72.9012,-1.3083,0.8,0.8,0.8
46.5161,73.3542,8.3416,0.8,0.8,0.8
51.7538,88.9782,0.0885,0.8,0.8,0.8
57.8385,76.0871,4.1382,0.8,0.8,0.8
49.6945,77.2903,-1.1432,0.8,0.8,0.8
48.5448,71.4627,8.7199,0.8,0.8,0.8
50.7853,74.5119,2.3551,0.8,0.8,0.8
46.7432,76.431,0.4356,0.8,0.8,0.8
54.3246,73.3629,4.9865,0.8,0.8,0.8
47.4948,75.869,-1.2957,0.8,0.8,0.8
47.6346,74.8301,0.0574,0.8,0.8,0.8
52.5556,78.1733,2.7787,0.8,0.8,0.8
53.4827,78.0803,3.9216,0.8,0.8,0.8
46.7743,75.3678,-1.2893,0.8,0.8,0.8
46.881,70.1954,6.8726,0.8,0.8,0.8
54.9932,71.9715,0.6275,0.8,0.8,0.8
51.859,72.7034,-0.787,0.8,0.8,0.8
56.2331,82.775,1.9937,0.8,0.8,0.8
56.4973,77.1615,-1.2924,0.8,0.8,0.8
46.455,75.4245,3.2907,0.8,0.8,0.8
54.4253,74.5431,-0.9134,0.8,0.8,0.8
59.4866,73.7228,-0.7785,0.8,0.8,0.8
47.2981,70.0494,0.5702,0.8,0.8,0.8
51.5471,75.0692,8.7272,0.8,0.8,0.8
57.6125,80.135,3.6727,0.8,0.8,0.8
50.2919,70.9627,8.4296,0.8,0.8,0.8
49.0276,74.0994,2.5754,0.8,0.8,0.8
58.683,74.2266,4.1236,0.8,0.8,0.8
49.5478,76.209,8.7266,0.8,0.8,0.8
52.7529,82.4716,3.4971,0.8,0.8,0.8
58.8439,76.837,1.6433,0.8,0.8,0.8
57.0363,77.7406,-1.2952,0.8,0.8,0.8
46.9528,70.0022,4.4662,0.8,0.8,0.8
50.3307,77.5097,1.0315,0.8,0.8,0.8
51.8516,72.191,-1.3087,0.8,0.8,0.8
53.4294,73.4097,7.7852,0.8,0.8,0.8
50.3878,71.3319,-0.7082,0.8,0.8,0.8
56.4262,75.9337,4.1163,0.8,0.8,0.8
45.74,73.7781,0.3282,0.8,0.8,0.8
49.7133,77.3236,-0.0022,0.8,0.8,0.8
57.7822,74.1164,4.1325,0.8,0.8,0.8
46.8069,70.4045,3.6983,0.8,0.8,0.8
57.0671,82.9448,-0.0123,0.8,0.8,0.8
52.0239,71.1005,6.6493,0.8,0.8,0.8
51.8144,76.3633,5.6815,0.8,0.8,0.8
49.8598,75.5068,-1.2884,0.8,0.8,0.8
49.9536,74.2447,2.8107,0.8,0.8,0.8
56.301,82.5596,-0.2822,0.8,0.8,0.8
46.522,73.4855,8.3818,0.8,0.8,0.8
54.5484,72.4759,-1.3076,0.8,0.8,0.8
52.7303,74.8541,-1.0235,0.8,0.8,0.8
57.7036,77.2044,4.1812,0.8,0.8,0.8
51.0185,75.5734,-1.2997,0.8,0.8,0.8
59.6652,73.7917,1.2202,0.8,0.8,0.8
46.3974,72.953,-0.5059,0.8,0.8,0.8
53.1976,71.1778,2.248,0.8,0.8,0.8
46.4517,72.7727,0.64,0.8,0.8,0.8
58.4073,78.5348,3.6482,0.8,0.8,0.8
58.6195,73.3539,2.1896,0.8,0.8,0.8
54.5503,75.6881,-1.2993,0.8,0.8,0.8
52.9106,79.0397,1.5006,0.8,0.8,0.8
55.2887,73.5032,0.0125,0.8,0.8,0.8
55.3458,82.4832,3.0504,0.8,0.8,0.8
47.7814,71.6102,-0.8169,0.8,0.8,0.8
48.0478,70.9716,-0.3552,0.8,0.8,0.8
52.0443,75.9242,4.6815,0.8,0.8,0.8
48.6561,69.8639,7.1435,0.8,0.8,0.8
58.1508,79.4319,0.3057,0.8,0.8,0.8
49.5224,75.3991,-1.2866,0.8,0.8,0.8
50.2206,71.2605,8.72,0.8,0.8,0.8
58.5988,77.8909,0.7828,0.8,0.8,0.8
55.8307,75.7798,-1.2917,0.8,0.8,0.8
57.3982,81.4991,1.0241,0.8,0.8,0.8
51.7343,71.3861,0.92,0.8,0.8,0.8
57.638,80.0251,0.8782,0.8,0.8,0.8
55.2632,82.4492,0.0082,0.8,0.8,0.8
53.6357,74.5053,-1.3021,0.8,0.8,0.8
52.3838,80.7487,0.4648,0.8,0.8,0.8
51.5258,83.9111,3.328,0.8,0.8,0.8
52.0323,71.2738,2.5589,0.8,0.8,0.8
50.1303,75.9049,1.0543,0.8,0.8,0.8
54.1085,83.1874,3.0544,0.8,0.8,0.8
56.3521,78.9847,-0.278,0.8,0.8,0.8
51.5245,77.4665,5.6604,0.8,0.8,0.8
58.8311,77.1374,4.0396,0.8,0.8,0.8
55.8604,78.8771,3.9018,0.8,0.8,0.8
56.5622,73.3026,-1.3171,0.8,0.8,0.8
51.7129,71.3805,1.1378,0.8,0.8,0.8
50.8031,88.6864,2.1754,0.8,0.8,0.8
46.9046,70.971,4.8811,0.8,0.8,0.8
59.1668,75.9555,-1.0688,0.8,0.8,0.8
46.2718,72.116,5.6411,0.8,0.8,0.8
48.4112,74.1712,-0.701,0.8,0.8,0.8
48.0777,70.1688,5.9818,0.8,0.8,0.8
46.3518,76.3063,-1.1052,0.8,0.8,0.8
56.3833,73.5443,4.1728,0.8,0.8,0.8
46.1484,73.0444,1.8744,0.8,0.8,0.8
50.6545,70.449,4.2796,0.8,0.8,0.8
52.2195,73.5213,-1.3033,0.8,0.8,0.8
50.7963,88.6867,-0.2077,0.8,0.8,0.8
56.8654,78.5354,3.9516,0.8,0.8,0.8
54.5526,79.8246,3.7946,0.8,0.8,0.8
55.4002,73.2324,-0.0433,0.8,0.8,0.8
50.5902,74.028,4.4398,0.8,0.8,0.8
58.3935,78.6098,2.5807,0.8,0.8,0.8
58.7382,76.4254,3.9303,0.8,0.8,0.8
51.6676,71.3743,4.4553,0.8,0.8,0.8
57.303,80.6156,3.7965,0.8,0.8,0.8
52.5192,82.8294,3.4565,0.8,0.8,0.8
53.5818,76.7184,-1.284,0.8,0.8,0.8
47.8109,75.8248,8.7261,0.8,0.8,0.8
46.7764,75.3894,8.7258,0.8,0.8,0.8
58.2495,79.0515,3.1809,0.8,0.8,0.8
53.304,71.2348,4.1286,0.8,0.8,0.8
47.6452,76.7002,2.6524,0.8,0.8,0.8
50.8051,74.0894,4.9479,0.8,0.8,0.8
52.1624,74.0064,8.7287,0.8,0.8,0.8
57.632,80.1017,0.8506,0.8,0.8,0.8
51.6004,71.349,4.7379,0.8,0.8,0.8
59.3023,75.6073,-0.4767,0.8,0.8,0.8
46.9618,69.9426,4.9152,0.8,0.8,0.8
56.5722,72.5305,4.5824,0.8,0.8,0.8
58.3504,78.7349,-0.0854,0.8,0.8,0.8
55.6133,82.5672,2.7742,0.8,0.8,0.8
45.8522,76.1617,0.5314,0.8,0.8,0.8
52.3773,74.8916,3.7769,0.8,0.8,0.8
46.9449,73.4154,-0.2225,0.8,0.8,0.8
54.1435,77.7881,3.9514,0.8,0.8,0.8
51.7933,82.7027,-0.0567,0.8,0.8,0.8
53.9389,81.1908,3.6448,0.8,0.8,0.8
57.1736,75.0377,0.1339,0.8,0.8,0.8
59.2405,75.472,0.0736,0.8,0.8,0.8
59.3213,75.5226,3.0121,0.8,0.8,0.8
51.489,77.6386,4.6806,0.8,0.8,0.8
57.8327,75.2168,4.1193,0.8,0.8,0.8
48.2823,74.1627,-0.5933,0.8,0.8,0.8
50.4972,88.5991,-0.7335,0.8,0.8,0.8
49.1153,75.4724,1.5944,0.8,0.8,0.8
50.7947,88.6889,-0.431,0.8,0.8,0.8
57.6461,74.3937,-0.707,0.8,0.8,0.8
51.0526,77.7152,4.3948,0.8,0.8,0.8
55.3568,76.2914,-1.291,0.8,0.8,0.8
51.0661,77.589,-0.3489,0.8,0.8,0.8
47.7641,75.7589,8.7262,0.8,0.8,0.8
51.8379,73.6515,-1.3082,0.8,0.8,0.8
55.2982,72.4626,4.5047,0.8,0.8,0.8
54.6521,72.1597,5.5254,0.8,0.8,0.8
54.939,79.7441,3.812,0.8,0.8,0.8
51.8949,71.3243,0.0605,0.8,0.8,0.8
49.0419,77.1261,0.5098,0.8,0.8,0.8
53.0442,77.8117,4.1185,0.8,0.8,0.8
58.6689,76.7815,2.1971,0.8,0.8,0.8
49.4922,72.9545,8.7172,0.8,0.8,0.8
47.724,76.3705,8.7315,0.8,0.8,0.8
52.8261,79.3318,-1.2697,0.8,0.8,0.8
59.4647,73.6164,2.3262,0.8,0.8,0.8
52.3376,72.7819,-0.6472,0.8,0.8,0.8
46.4371,72.8566,5.9177,0.8,0.8,0.8
54.6017,82.2211,0.5771,0.8,0.8,0.8
54.1978,74.2024,-0.8808,0.8,0.8,0.8
55.3845,72.4849,1.2013,0.8,0.8,0.8
54.2888,82.6573,0.1328,0.8,0.8,0.8
53.4426,73.8484,-1.3049,0.8,0.8,0.8
47.8,71.149,-0.9918,0.8,0.8,0.8
58.0821,73.7972,4.136,0.8,0.8,0.8
54.9668,73.0109,3.2489,0.8,0.8,0.8
52.1258,78.0456,2.5695,0.8,0.8,0.8
51.6848,74.3616,4.5859,0.8,0.8,0.8
51.7583,71.3902,0.1126,0.8,0.8,0.8
50.7078,77.6166,3.9015,0.8,0.8,0.8
50.6568,70.8319,0.8119,0.8,0.8,0.8
51.4571,81.986,-1.1365,0.8,0.8,0.8
57.7948,76.7994,4.1658,0.8,0.8,0.8
56.5782,75.3694,-1.2934,0.8,0.8,0.8
58.2924,78.8885,4.409,0.8,0.8,0.8
45.9929,72.9978,8.5878,0.8,0.8,0.8
49.1211,70.4037,1.0574,0.8,0.8,0.8
56.231,74.8118,0.8119,0.8,0.8,0.8
55.5525,82.5505,-0.1192,0.8,0.8,0.8
53.0455,78.5924,2.244,0.8,0.8,0.8
47.9071,71.1174,-1.2965,0.8,0.8,0.8
52.9808,78.2967,2.0758,0.8,0.8,0.8
50.2515,75.684,-1.2995,0.8,0.8,0.8
52.8357,79.3541,0.1883,0.8,0.8,0.8
51.2898,74.5212,4.8613,0.8,0.8,0.8
51.9169,74.9957,8.7274,0.8,0.8,0.8
55.5797,72.4317,5.7724,0.8,0.8,0.8
45.1338,75.6267,1.4664,0.8,0.8,0.8
53.0013,78.7355,2.2992,0.8,0.8,0.8
46.4161,74.3689,-0.0097,0.8,0.8,0.8
50.7649,77.6464,2.0572,0.8,0.8,0.8
59.3164,73.5665,1.43,0.8,0.8,0.8
54.9197,72.1828,1.6623,0.8,0.8,0.8
51.7918,82.6906,2.8305,0.8,0.8,0.8
45.1407,75.6454,2.2371,0.8,0.8,0.8
49.6319,73.0708,8.719,0.8,0.8,0.8
48.0863,75.9699,3.6594,0.8,0.8,0.8
45.4645,73.1088,6.8761,0.8,0.8,0.8
58.1658,79.3543,2.3353,0.8,0.8,0.8
57.2692,77.3536,-1.2915,0.8,0.8,0.8
50.7859,74.087,4.8403,0.8,0.8,0.8
48.6087,70.1479,-0.0116,0.8,0.8,0.8
56.3022,75.2608,0.8133,0.8,0.8,0.8
57.7188,79.8262,-0.0799,0.8,0.8,0.8
49.4959,73.3162,8.7225,0.8,0.8,0.8
46.6768,70.8224,5.3183,0.8,0.8,0.8
46.0774,72.1639,-0.9031,0.8,0.8,0.8
59.5779,74.7104,-0.2481,0.8,0.8,0.8
52.6393,79.9172,3.0345,0.8,0.8,0.8
46.3658,71.8199,4.4427,0.8,0.8,0.8
44.9278,77.2512,8.6208,0.8,0.8,0.8
54.2224,73.5298,5.2935,0.8,0.8,0.8
51.2425,84.5024,0.999,0.8,0.8,0.8
50.7737,74.5019,1.7191,0.8,0.8,0.8
54.4397,74.2013,-0.5783,0.8,0.8,0.8
47.5335,71.3189,-0.1891,0.8,0.8,0.8
51.1578,74.2024,4.6775,0.8,0.8,0.8
49.3923,74.1517,-1.295,0.8,0.8,0.8
54.5079,77.462,-1.2926,0.8,0.8,0.8
50.1938,74.4491,2.636,0.8,0.8,0.8
51.4434,77.8473,2.4237,0.8,0.8,0.8
58.3823,78.6195,1.9957,0.8,0.8,0.8
55.8224,76.5635,4.1194,0.8,0.8,0.8
53.9048,83.7884,-0.365,0.8,0.8,0.8
55.5988,75.8566,4.117,0.8,0.8,0.8
59.7082,74.2774,-0.6533,0.8,0.8,0.8
59.6767,74.4008,-0.5274,0.8,0.8,0.8
51.5324,74.2903,-1.3051,0.8,0.8,0.8
57.063,82.8325,1.6394,0.8,0.8,0.8
45.8374,73.4769,8.4472,0.8,0.8,0.8
50.8822,71.1363,4.8487,0.8,0.8,0.8
50.861,77.4928,0.4153,0.8,0.8,0.8
55.4115,73.2603,4.9705,0.8,0.8,0.8
52.7135,72.6912,-0.8709,0.8,0.8,0.8
56.1683,73.045,0.8024,0.8,0.8,0.8
48.6751,75.055,2.4119,0.8,0.8,0.8
52.7973,74.4921,5.4183,0.8,0.8,0.8
56.1546,82.7435,3.5508,0.8,0.8,0.8
48.9422,72.5052,8.7254,0.8,0.8,0.8
51.7702,71.3953,-0.2289,0.8,0.8,0.8
52.96,78.8839,3.9048,0.8,0.8,0.8
57.5582,81.3311,3.214,0.8,0.8,0.8
55.3688,74.4295,-0.7914,0.8,0.8,0.8
52.032,72.6935,-0.476,0.8,0.8,0.8
57.8104,72.7429,4.4503,0.8,0.8,0.8
52.6226,79.9732,1.5757,0.8,0.8,0.8
55.4112,72.5388,1.2312,0.8,0.8,0.8
52.7309,83.8336,-1.2834,0.8,0.8,0.8
55.1432,74.3534,0.5952,0.8,0.8,0.8
58.0288,79.8104,2.0761,0.8,0.8,0.8
51.0781,85.0349,3.1403,0.8,0.8,0.8
45.9524,73.0922,1.3121,0.8,0.8,0.8
47.8616,76.7669,-0.1416,0.8,0.8,0.8
55.6781,74.1108,4.1727,0.8,0.8,0.8
53.1442,75.5687,4.1759,0.8,0.8,0.8
55.1061,80.0176,-0.617,0.8,0.8,0.8
45.0347,75.9348,7.6806,0.8,0.8,0.8
53.0257,78.6655,3.9224,0.8,0.8,0.8
52.849,75.1432,-1.2993,0.8,0.8,0.8
56.3466,75.2482,-1.3,0.8,0.8,0.8
58.663,77.6915,2.093,0.8,0.8,0.8
53.3734,73.3321,-0.7562,0.8,0.8,0.8
47.6518,74.7231,-0.4144,0.8,0.8,0.8
51.7587,88.9808,1.3401,0.8,0.8,0.8
45.2853,75.193,2.2483,0.8,0.8,0.8
52.5074,75.4054,-1.2929,0.8,0.8,0.8
47.9144,70.2386,8.5272,0.8,0.8,0.8
48.6471,69.9911,1.4881,0.8,0.8,0.8
52.787,75.602,-1.2904,0.8,0.8,0.8
51.9562,82.1594,0.0547,0.8,0.8,0.8
54.4212,71.8375,-0.8656,0.8,0.8,0.8
52.6757,82.0378,3.5338,0.8,0.8,0.8
58.9124,76.854,3.6401,0.8,0.8,0.8
54.3147,76.8232,-1.2877,0.8,0.8,0.8
46.7563,72.1339,8.7206,0.8,0.8,0.8
55.4754,72.3433,1.9196,0.8,0.8,0.8
53.8867,71.409,4.4126,0.8,0.8,0.8
51.9234,76.1272,5.2918,0.8,0.8,0.8
50.701,75.6777,1.3101,0.8,0.8,0.8
45.3359,75.0195,-0.3208,0.8,0.8,0.8
54.5586,81.1923,3.6571,0.8,0.8,0.8
48.0493,70.1599,8.2172,0.8,0.8,0.8
53.0846,74.1625,5.274,0.8,0.8,0.8
58.3553,78.6856,4.5995,0.8,0.8,0.8
46.6403,71.2379,2.6313,0.8,0.8,0.8
52.0011,73.5006,-1.3059,0.8,0.8,0.8
53.3903,75.2125,4.1857,0.8,0.8,0.8
57.7778,79.7716,2.8469,0.8,0.8,0.8
55.5167,79.4114,-0.101,0.8,0.8,0.8
52.329,71.5787,8.572,0.8,0.8,0.8
52.9589,81.605,3.5849,0.8,0.8,0.8
45.7825,73.6367,0.5969,0.8,0.8,0.8
58.0543,79.6843,3.8377,0.8,0.8,0.8
51.5785,75.895,-1.296,0.8,0.8,0.8
57.3509,75.1593,0.0322,0.8,0.8,0.8
58.5393,78.0453,1.5023,0.8,0.8,0.8
46.2531,71.6199,-0.9468,0.8,0.8,0.8
57.0133,81.7993,-0.6307,0.8,0.8,0.8
52.8188,79.3246,-0.4539,0.8,0.8,0.8
49.8996,73.7307,-1.2984,0.8,0.8,0.8
53.955,77.7862,3.9497,0.8,0.8,0.8
46.3909,72.9701,3.4412,0.8,0.8,0.8
47.7207,70.057,4.0731,0.8,0.8,0.8
54.7292,76.1172,-1.2922,0.8,0.8,0.8
54.9885,76.0313,4.1195,0.8,0.8,0.8
52.8214,82.9947,3.4478,0.8,0.8,0.8
54.4692,78.8475,3.8728,0.8,0.8,0.8
57.4222,82.1362,1.7126,0.8,0.8,0.8
55.048,71.9087,7.0976,0.8,0.8,0.8
47.8889,70.1036,1.5312,0.8,0.8,0.8
54.5078,72.1204,5.9941,0.8,0.8,0.8
48.9492,75.2199,-1.1917,0.8,0.8,0.8
52.5622,74.9458,3.6898,0.8,0.8,0.8
47.0426,69.9657,0.2835,0.8,0.8,0.8
55.3373,74.5269,-0.3813,0.8,0.8,0.8
51.8467,82.5054,2.2982,0.8,0.8,0.8
48.3878,77.8719,8.731,0.8,0.8,0.8
52.6212,71.1599,4.541,0.8,0.8,0.8
54.5322,81.4846,3.6297,0.8,0.8,0.8
50.1445,74.1809,8.2387,0.8,0.8,0.8
54.8856,78.3021,3.9244,0.8,0.8,0.8
48.0899,76.1516,0.1379,0.8,0.8,0.8
52.0997,71.5034,4.8876,0.8,0.8,0.8
52.5072,80.3601,1.7598,0.8,0.8,0.8
58.6625,76.6856,2.847,0.8,0.8,0.8
48.9872,76.5984,-1.3057,0.8,0.8,0.8
51.6641,71.3729,6.8598,0.8,0.8,0.8
52.462,78.147,3.4714,0.8,0.8,0.8
59.6243,74.4972,-0.8877,0.8,0.8,0.8
53.0952,76.3302,4.1455,0.8,0.8,0.8
56.3725,82.825,2.3611,0.8,0.8,0.8
50.9868,70.8517,8.3324,0.8,0.8,0.8
51.6769,75.5872,2.5796,0.8,0.8,0.8
55.0887,73.8817,0.0413,0.8,0.8,0.8
54.5278,79.5966,-1.2841,0.8,0.8,0.8
49.3163,73.6686,4.4343,0.8,0.8,0.8
46.3832,73.042,7.1529,0.8,0.8,0.8
56.411,82.1717,-0.7327,0.8,0.8,0.8
53.1361,78.3823,-0.1106,0.8,0.8,0.8
49.1392,75.7598,4.1082,0.8,0.8,0.8
46.4049,73.042,8.2159,0.8,0.8,0.8
46.9834,74.2405,-0.2326,0.8,0.8,0.8
57.5069,75.9481,-1.2972,0.8,0.8,0.8
54.1415,76.4467,4.1234,0.8,0.8,0.8
52.8805,78.2388,0.7899,0.8,0.8,0.8
55.0091,74.4466,-1.2995,0.8,0.8,0.8
59.3933,74.9061,-0.1507,0.8,0.8,0.8
53.0872,78.3297,1.0463,0.8,0.8,0.8
52.2754,74.5362,8.4471,0.8,0.8,0.8
58.6859,77.6328,-0.2821,0.8,0.8,0.8
48.7828,73.2068,8.7248,0.8,0.8,0.8
50.4284,88.5738,1.6557,0.8,0.8,0.8
56.2727,82.5947,-0.4373,0.8,0.8,0.8
45.8586,76.1602,0.6077,0.8,0.8,0.8
46.4489,72.7787,4.1792,0.8,0.8,0.8
49.4495,73.5009,-1.2976,0.8,0.8,0.8
52.0486,74.1591,8.7278,0.8,0.8,0.8
58.2245,79.1551,0.4256,0.8,0.8,0.8
52.1197,77.9702,4.1355,0.8,0.8,0.8
54.8798,80.4438,-0.7751,0.8,0.8,0.8
51.5083,74.6516,-1.3045,0.8,0.8,0.8
48.3763,72.388,8.7244,0.8,0.8,0.8
51.2292,77.7782,0.9667,0.8,0.8,0.8
48.2843,76.9976,8.7213,0.8,0.8,0.8
49.6534,77.3102,1.6481,0.8,0.8,0.8
59.7746,74.0538,2.6196,0.8,0.8,0.8
54.6709,73.294,5.4137,0.8,0.8,0.8
51.8872,76.2213,5.2836,0.8,0.8,0.8
54.1256,80.1844,-1.284,0.8,0.8,0.8
55.3988,74.9621,0.9346,0.8,0.8,0.8
53.0987,78.4201,1.0606,0.8,0.8,0.8
53.5759,78.8634,3.857,0.8,0.8,0.8
53.2489,83.5371,3.4068,0.8,0.8,0.8
56.8201,74.5146,-1.314,0.8,0.8,0.8
46.3783,72.1179,1.2533,0.8,0.8,0.8
46.1818,72.3873,6.453,0.8,0.8,0.8
58.3942,73.142,2.1835,0.8,0.8,0.8
52.7304,74.6385,3.0143,0.8,0.8,0.8
47.1196,69.9923,5.3098,0.8,0.8,0.8
58.9494,75.9976,-1.2996,0.8,0.8,0.8
46.812,74.882,3.1157,0.8,0.8,0.8
50.6482,88.6424,0.0888,0.8,0.8,0.8
52.0667,72.4573,-0.2364,0.8,0.8,0.8
55.4951,72.2607,3.8629,0.8,0.8,0.8
53.0834,74.7389,4.5352,0.8,0.8,0.8
45.5823,74.2544,5.6189,0.8,0.8,0.8
56.9058,82.9511,2.8617,0.8,0.8,0.8
57.5274,74.9504,4.1207,0.8,0.8,0.8
58.6698,76.6785,-0.2449,0.8,0.8,0.8
46.797,70.7367,2.4966,0.8,0.8,0.8
55.7431,76.7686,4.1227,0.8,0.8,0.8
57.6959,79.9098,-0.2881,0.8,0.8,0.8
50.0891,74.2867,2.4782,0.8,0.8,0.8
46.2334,74.0821,8.7342,0.8,0.8,0.8
47.1814,73.8448,8.7248,0.8,0.8,0.8
54.5062,78.7366,-1.2828,0.8,0.8,0.8
52.1356,70.886,3.6953,0.8,0.8,0.8
58.2893,74.9507,-1.3001,0.8,0.8,0.8
57.6014,74.4745,-1.302,0.8,0.8,0.8
52.2131,74.7969,4.8185,0.8,0.8,0.8
58.9416,73.4519,2.1834,0.8,0.8,0.8
53.4456,71.7901,5.455,0.8,0.8,0.8
58.712,77.5299,2.0528,0.8,0.8,0.8
45.4289,76.027,2.4587,0.8,0.8,0.8
57.3613,82.3019,1.8473,0.8,0.8,0.8
51.4598,77.098,8.435,0.8,0.8,0.8
45.8511,73.3845,3.194,0.8,0.8,0.8
46.5329,71.3063,8.08,0.8,0.8,0.8
57.5953,77.9975,4.2339,0.8,0.8,0.8
55.3956,74.3576,-0.0671,0.8,0.8,0.8
55.2393,82.4414,0.4906,0.8,0.8,0.8
58.8795,76.9546,0.6299,0.8,0.8,0.8
51.9725,77.972,-0.3384,0.8,0.8,0.8
50.9663,74.1122,-1.305,0.8,0.8,0.8
49.1154,76.6681,4.4081,0.8,0.8,0.8
52.9692,72.8908,-0.767,0.8,0.8,0.8
48.5421,70.2081,8.1204,0.8,0.8,0.8
53.0013,78.818,0.6552,0.8,0.8,0.8
52.6409,74.9715,4.0276,0.8,0.8,0.8
57.3959,81.8397,3.5436,0.8,0.8,0.8
57.445,82.0184,2.1462,0.8,0.8,0.8
52.5288,78.1668,3.2641,0.8,0.8,0.8
51.8495,88.1139,2.9543,0.8,0.8,0.8
47.9177,73.1099,8.7247,0.8,0.8,0.8
46.4035,72.7487,1.0335,0.8,0.8,0.8
46.8101,70.4391,5.4718,0.8,0.8,0.8
58.3555,78.6953,0.7285,0.8,0.8,0.8
56.6393,77.7756,-1.298,0.8,0.8,0.8
51.984,82.0686,1.0018,0.8,0.8,0.8
54.8656,73.8418,4.2113,0.8,0.8,0.8
53.3599,79.9199,-1.2883,0.8,0.8,0.8
46.8851,73.0793,8.1581,0.8,0.8,0.8
57.6937,79.8908,0.2881,0.8,0.8,0.8
52.9366,79.0243,0.4072,0.8,0.8,0.8
45.0776,75.9738,2.9345,0.8,0.8,0.8
57.024,82.7263,3.1214,0.8,0.8,0.8
53.7463,73.4182,5.2441,0.8,0.8,0.8
53.404,76.7126,4.1346,0.8,0.8,0.8
52.3436,74.8934,-0.4241,0.8,0.8,0.8
52.8413,79.2488,-0.6124,0.8,0.8,0.8
59.2382,75.4546,1.8984,0.8,0.8,0.8
51.6272,83.2435,0.657,0.8,0.8,0.8
53.0291,71.1459,4.3335,0.8,0.8,0.8
54.8325,82.2992,2.2196,0.8,0.8,0.8
55.3524,82.4813,0.2907,0.8,0.8,0.8
51.6711,72.0737,2.2811,0.8,0.8,0.8
47.4451,70.0959,8.477,0.8,0.8,0.8
57.3356,82.0812,-0.0414,0.8,0.8,0.8
56.9273,82.5138,3.1195,0.8,0.8,0.8
57.5988,78.2692,4.2543,0.8,0.8,0.8
48.0593,73.7596,2.9228,0.8,0.8,0.8
48.3618,75.2657,4.4083,0.8,0.8,0.8
47.0901,69.98,7.3586,0.8,0.8,0.8
59.5021,74.9055,3.3932,0.8,0.8,0.8
51.5199,83.6089,0.0955,0.8,0.8,0.8
52.3588,80.8417,0.8547,0.8,0.8,0.8
51.4478,74.2872,8.2419,0.8,0.8,0.8
55.0915,73.7308,0.351,0.8,0.8,0.8
48.6747,77.1063,8.3596,0.8,0.8,0.8
51.9097,76.2169,4.8485,0.8,0.8,0.8
55.4246,80.1628,-0.1049,0.8,0.8,0.8
54.8797,80.2956,-0.098,0.8,0.8,0.8
51.379,72.4539,8.6244,0.8,0.8,0.8
58.5912,77.9295,3.7651,0.8,0.8,0.8
57.3503,75.1595,-1.0127,0.8,0.8,0.8
55.4326,82.5051,2.5714,0.8,0.8,0.8
52.4183,74.6719,3.2503,0.8,0.8,0.8
58.3025,78.8755,3.7375,0.8,0.8,0.8
54.9676,72.1656,8.3179,0.8,0.8,0.8
59.6477,74.4385,3.5959,0.8,0.8,0.8
52.9887,78.7752,2.5005,0.8,0.8,0.8
57.8972,75.1939,-1.2992,0.8,0.8,0.8
52.714,80.0709,0.2046,0.8,0.8,0.8
57.8334,80.4398,1.272,0.8,0.8,0.8
52.1847,76.9427,-1.2945,0.8,0.8,0.8
56.9235,82.601,1.0181,0.8,0.8,0.8
54.117,72.2861,-1.3107,0.8,0.8,0.8
57.1549,81.6675,3.6831,0.8,0.8,0.8
49.0034,77.1113,-0.3484,0.8,0.8,0.8
57.5921,75.0972,4.1189,0.8,0.8,0.8
48.9292,71.778,-1.3002,0.8,0.8,0.8
51.101,88.7779,2.4721,0.8,0.8,0.8
57.6245,81.1138,1.493,0.8,0.8,0.8
57.9362,79.8233,2.4487,0.8,0.8,0.8
53.1691,78.0004,-1.292,0.8,0.8,0.8
59.3786,74.9089,0.877,0.8,0.8,0.8
47.0471,74.2076,3.2897,0.8,0.8,0.8
54.9204,81.3408,3.6515,0.8,0.8,0.8
45.0527,75.9189,2.2844,0.8,0.8,0.8
51.4651,88.8943,1.5655,0.8,0.8,0.8
54.8636,82.3113,2.7631,0.8,0.8,0.8
57.2753,82.9919,3.1262,0.8,0.8,0.8
54.5476,76.4338,4.1214,0.8,0.8,0.8
54.2306,75.3323,4.1501,0.8,0.8,0.8
49.7433,76.4495,-1.3027,0.8,0.8,0.8
46.9368,72.938,8.2161,0.8,0.8,0.8
50.4958,77.5583,0.1855,0.8,0.8,0.8
54.6398,76.4725,4.1203,0.8,0.8,0.8
47.3444,69.9821,-0.2357,0.8,0.8,0.8
52.902,75.788,4.898,0.8,0.8,0.8
53.0274,78.6519,2.2914,0.8,0.8,0.8
45.6239,74.1247,6.4109,0.8,0.8,0.8
57.6441,80.0335,3.4903,0.8,0.8,0.8
52.4616,88.0663,2.8944,0.8,0.8,0.8
54.7218,74.1725,4.1954,0.8,0.8,0.8
52.2782,74.8466,-1.3085,0.8,0.8,0.8
50.409,72.6734,8.7209,0.8,0.8,0.8
58.9048,73.441,2.2563,0.8,0.8,0.8
55.7959,82.0191,3.6115,0.8,0.8,0.8
55.0884,77.3555,-1.2891,0.8,0.8,0.8
54.9085,71.7538,7.9003,0.8,0.8,0.8
59.5944,74.6215,3.2438,0.8,0.8,0.8
54.505,71.8582,-0.7911,0.8,0.8,0.8
49.0336,75.0294,-1.2996,0.8,0.8,0.8
53.2132,71.1319,7.9867,0.8,0.8,0.8
46.1141,72.5932,1.044,0.8,0.8,0.8
47.3222,70.0594,4.7776,0.8,0.8,0.8
49.9217,70.6455,1.1476,0.8,0.8,0.8
46.0146,72.9338,8.3812,0.8,0.8,0.8
51.4122,81.9687,-0.2244,0.8,0.8,0.8
58.0659,76.6235,-1.2954,0.8,0.8,0.8
54.3646,81.3237,-1.2858,0.8,0.8,0.8
52.9286,73.92,7.935,0.8,0.8,0.8
50.9138,70.8663,4.5712,0.8,0.8,0.8
52.8919,74.1225,7.0524,0.8,0.8,0.8
54.534,80.2657,-1.2865,0.8,0.8,0.8
47.3621,74.2707,-0.2327,0.8,0.8,0.8
48.9112,76.726,-1.2139,0.8,0.8,0.8
46.6633,70.8868,6.546,0.8,0.8,0.8
52.7832,73.766,8.72,0.8,0.8,0.8
51.5798,77.0362,7.0353,0.8,0.8,0.8
46.2239,75.5733,3.2027,0.8,0.8,0.8
59.3469,75.0887,1.6431,0.8,0.8,0.8
58.0978,79.5926,0.5443,0.8,0.8,0.8
59.4246,75.1647,-0.8648,0.8,0.8,0.8
57.4003,82.3048,2.6345,0.8,0.8,0.8
54.3598,72.1848,4.7738,0.8,0.8,0.8
59.0551,76.4,-0.2701,0.8,0.8,0.8
58.1985,74.6781,-0.5849,0.8,0.8,0.8
47.5275,76.1172,3.3918,0.8,0.8,0.8
47.6546,70.037,7.1729,0.8,0.8,0.8
52.9565,85.8406,4.4407,0.8,0.8,0.8
56.5513,75.5528,-1.2936,0.8,0.8,0.8
52.2404,75.8675,-1.2898,0.8,0.8,0.8
47.4935,73.7821,8.7244,0.8,0.8,0.8
58.6561,73.3605,3.8367,0.8,0.8,0.8
50.6375,72.4933,8.718,0.8,0.8,0.8
47.5208,73.4536,-1.2922,0.8,0.8,0.8
50.8093,72.01,-1.2991,0.8,0.8,0.8
55.6413,76.732,-1.2911,0.8,0.8,0.8
58.1216,76.416,-1.2959,0.8,0.8,0.8
56.3876,74.6852,4.1288,0.8,0.8,0.8
56.7781,77.9107,-0.9806,0.8,0.8,0.8
46.7599,70.6117,5.4827,0.8,0.8,0.8
52.0198,71.2958,1.4074,0.8,0.8,0.8
49.008,74.2631,8.7247,0.8,0.8,0.8
54.6947,71.6537,4.0722,0.8,0.8,0.8
57.6933,80.8812,3.5622,0.8,0.8,0.8
52.3102,80.9953,1.5757,0.8,0.8,0.8
53.281,71.2393,0.8341,0.8,0.8,0.8
51.8468,71.3945,3.9785,0.8,0.8,0.8
51.4087,77.3769,4.99,0.8,0.8,0.8
57.6335,81.1004,1.0046,0.8,0.8,0.8
49.2424,76.0142,8.7278,0.8,0.8,0.8
54.5347,81.1534,-0.4651,0.8,0.8,0.8
58.5224,72.7191,2.6294,0.8,0.8,0.8
57.7666,80.664,2.5664,0.8,0.8,0.8
58.5751,77.9997,1.0045,0.8,0.8,0.8
46.3361,71.9067,5.9767,0.8,0.8,0.8
52.9667,78.9162,-1.2889,0.8,0.8,0.8
52.2094,72.0158,-0.3921,0.8,0.8,0.8
49.5682,71.4643,8.7214,0.8,0.8,0.8
46.154,76.2478,1.9188,0.8,0.8,0.8
49.4741,70.8961,8.7224,0.8,0.8,0.8
55.5001,73.2301,0.8006,0.8,0.8,0.8
52.7374,74.072,8.7223,0.8,0.8,0.8
56.2069,82.765,2.5095,0.8,0.8,0.8
56.8173,82.9246,1.9939,0.8,0.8,0.8
48.3107,71.5343,-1.2999,0.8,0.8,0.8
47.7891,70.0753,2.4138,0.8,0.8,0.8
58.1276,72.8355,4.5333,0.8,0.8,0.8
50.8002,88.6896,1.6492,0.8,0.8,0.8
52.5671,80.1553,2.0031,0.8,0.8,0.8
54.6353,77.2544,4.1226,0.8,0.8,0.8
51.5238,77.8695,2.7848,0.8,0.8,0.8
52.12,78.0231,4.9749,0.8,0.8,0.8
51.631,76.7242,7.615,0.8,0.8,0.8
49.6023,70.6414,8.3354,0.8,0.8,0.8
49.5599,70.1895,4.441,0.8,0.8,0.8
47.9187,73.8708,-0.3134,0.8,0.8,0.8
53.5323,72.7984,-1.3093,0.8,0.8,0.8
57.6773,80.9539,0.8265,0.8,0.8,0.8
52.1672,78.0586,3.0601,0.8,0.8,0.8
53.4916,73.6988,5.1859,0.8,0.8,0.8
54.8062,77.7113,-1.287,0.8,0.8,0.8
54.7273,81.8097,3.5969,0.8,0.8,0.8
58.3061,78.8886,1.5334,0.8,0.8,0.8
58.7861,76.4382,3.0246,0.8,0.8,0.8
59.5479,74.4006,2.4223,0.8,0.8,0.8
53.7977,71.3478,-0.7721,0.8,0.8,0.8
57.2849,82.2971,3.1256,0.8,0.8,0.8
59.0519,76.0169,-0.5642,0.8,0.8,0.8
51.3848,77.8254,-0.8009,0.8,0.8,0.8
55.098,81.9638,-0.1008,0.8,0.8,0.8
54.7463,73.81,4.2167,0.8,0.8,0.8
57.5891,74.1335,4.1349,0.8,0.8,0.8
58.5792,77.9417,-0.6715,0.8,0.8,0.8
56.5178,74.542,-1.3148,0.8,0.8,0.8
46.5143,72.5426,8.7267,0.8,0.8,0.8
59.6029,74.5622,-0.942,0.8,0.8,0.8
48.4398,75.5916,3.8368,0.8,0.8,0.8
54.1867,80.7711,-1.2832,0.8,0.8,0.8
50.4587,77.5467,-0.8297,0.8,0.8,0.8
51.2357,76.9995,8.7282,0.8,0.8,0.8
52.0248,77.2681,-1.2989,0.8,0.8,0.8
49.1414,75.2314,3.1356,0.8,0.8,0.8
56.2203,80.097,3.8123,0.8,0.8,0.8
51.8386,71.4208,2.0905,0.8,0.8,0.8
46.8496,70.3075,7.1612,0.8,0.8,0.8
50.1576,73.9072,8.4586,0.8,0.8,0.8
45.8897,73.316,8.1382,0.8,0.8,0.8
52.1454,77.982,4.6658,0.8,0.8,0.8
48.7725,71.3481,-0.6686,0.8,0.8,0.8
52.6542,74.6184,4.1281,0.8,0.8,0.8
54.7544,72.3176,-1.3048,0.8,0.8,0.8
52.3547,71.8198,8.7377,0.8,0.8,0.8
50.8017,72.7023,8.7214,0.8,0.8,0.8
46.851,70.5625,2.8933,0.8,0.8,0.8
49.812,73.6809,-1.2994,0.8,0.8,0.8
51.2833,75.6376,-1.2997,0.8,0.8,0.8
58.3986,78.5921,-0.0264,0.8,0.8,0.8
51.5733,71.3357,-0.697,0.8,0.8,0.8
55.414,72.5353,3.1864,0.8,0.8,0.8
56.5899,82.8921,3.0043,0.8,0.8,0.8
48.4034,75.9327,8.7235,0.8,0.8,0.8
56.7746,73.6357,4.1574,0.8,0.8,0.8
47.9343,74.7472,-0.4489,0.8,0.8,0.8
50.7443,86.1174,1.3576,0.8,0.8,0.8
58.1337,79.4925,0.9624,0.8,0.8,0.8
58.531,76.7084,-1.2927,0.8,0.8,0.8
52.8906,79.0986,2.4538,0.8,0.8,0.8
46.423,71.64,7.7311,0.8,0.8,0.8
45.2501,73.7909,5.9531,0.8,0.8,0.8
46.0967,73.3896,4.8592,0.8,0.8,0.8
46.6466,71.1822,1.7691,0.8,0.8,0.8
57.486,81.5654,2.3483,0.8,0.8,0.8
53.0012,78.8114,-0.1901,0.8,0.8,0.8
50.3072,70.9595,4.8385,0.8,0.8,0.8
58.2626,79.0237,1.7736,0.8,0.8,0.8
47.6272,74.8745,0.4978,0.8,0.8,0.8
47.9587,76.3575,-1.3089,0.8,0.8,0.8
48.2899,75.5185,0.1739,0.8,0.8,0.8
50.9973,76.1621,1.3372,0.8,0.8,0.8
53.7157,75.829,4.145,0.8,0.8,0.8
55.0074,72.0396,8.2269,0.8,0.8,0.8
50.2752,77.498,2.6859,0.8,0.8,0.8
48.9443,74.0276,2.2884,0.8,0.8,0.8
45.6614,74.465,5.7109,0.8,0.8,0.8
54.9781,79.2501,3.8536,0.8,0.8,0.8
58.0102,76.0966,-1.2973,0.8,0.8,0.8
49.7141,70.7797,4.7266,0.8,0.8,0.8
52.5458,71.0052,4.0065,0.8,0.8,0.8
50.4765,70.2858,-0.7898,0.8,0.8,0.8
46.7544,70.6084,5.6832,0.8,0.8,0.8
58.651,76.7786,1.3191,0.8,0.8,0.8
48.2953,76.4843,-1.2987,0.8,0.8,0.8
49.6995,73.0151,8.7163,0.8,0.8,0.8
52.9984,78.3025,1.2504,0.8,0.8,0.8
45.1476,75.5584,0.8448,0.8,0.8,0.8
51.1061,71.9631,-1.3028,0.8,0.8,0.8
49.6116,76.838,4.649,0.8,0.8,0.8
52.8597,79.1988,0.8577,0.8,0.8,0.8
49.1403,69.9865,4.3601,0.8,0.8,0.8
52.1862,75.4429,5.7399,0.8,0.8,0.8
49.3967,76.779,4.3166,0.8,0.8,0.8
50.9798,71.8335,-0.7783,0.8,0.8,0.8
59.0508,73.4866,1.8531,0.8,0.8,0.8
48.404,76.9268,1.2061,0.8,0.8,0.8
55.809,79.9968,3.8107,0.8,0.8,0.8
57.1725,75.0877,0.3624,0.8,0.8,0.8
49.9476,72.1399,-1.3049,0.8,0.8,0.8
50.8856,70.6365,8.1789,0.8,0.8,0.8
55.9989,73.7204,4.1819,0.8,0.8,0.8
56.0462,72.5713,5.6542,0.8,0.8,0.8
57.1868,72.4127,4.3232,0.8,0.8,0.8
47.8179,72.4593,-1.2929,0.8,0.8,0.8
54.7322,73.4348,-0.5685,0.8,0.8,0.8
45.8435,73.451,0.6147,0.8,0.8,0.8
57.0808,82.9141,3.6058,0.8,0.8,0.8
55.0173,82.3628,0.8565,0.8,0.8,0.8
56.0438,73.3258,4.9665,0.8,0.8,0.8
55.8753,74.9503,4.1312,0.8,0.8,0.8
59.7873,74.0329,1.8237,0.8,0.8,0.8
59.2411,75.4021,0.0973,0.8,0.8,0.8
48.7436,77.0411,1.066,0.8,0.8,0.8
58.3133,78.8253,4.2644,0.8,0.8,0.8
45.7839,72.8482,7.1448,0.8,0.8,0.8
49.2085,77.1797,1.5255,0.8,0.8,0.8
55.1094,82.3928,1.7937,0.8,0.8,0.8
49.0707,74.4003,8.7251,0.8,0.8,0.8
59.1346,75.7886,2.2235,0.8,0.8,0.8
53.1336,84.8831,3.6981,0.8,0.8,0.8
55.642,75.7698,-1.2937,0.8,0.8,0.8
54.6002,71.8856,-1.3048,0.8,0.8,0.8
50.6471,70.4124,0.219,0.8,0.8,0.8
47.217,73.5804,3.0828,0.8,0.8,0.8
56.7037,78.6982,-0.2794,0.8,0.8,0.8
57.766,73.0807,-1.2698,0.8,0.8,0.8
52.3834,74.7907,2.3896,0.8,0.8,0.8
49.6295,73.7883,-1.2972,0.8,0.8,0.8
54.1561,76.3823,4.1255,0.8,0.8,0.8
51.2409,75.4459,-1.2994,0.8,0.8,0.8
58.641,77.7579,3.8237,0.8,0.8,0.8
46.2756,71.5528,-1.2422,0.8,0.8,0.8
48.8437,75.171,3.3903,0.8,0.8,0.8
59.381,74.9756,2.0653,0.8,0.8,0.8
55.5485,82.5472,2.3459,0.8,0.8,0.8
57.1817,75.0658,-0.7511,0.8,0.8,0.8
57.2974,82.0629,1.6222,0.8,0.8,0.8
54.6504,77.0274,-1.2855,0.8,0.8,0.8
57.4492,81.681,0.7131,0.8,0.8,0.8
46.4358,71.8967,2.21,0.8,0.8,0.8
49.4479,72.9086,8.7182,0.8,0.8,0.8
55.2804,78.0787,3.9531,0.8,0.8,0.8
46.6905,74.986,8.7264,0.8,0.8,0.8
45.655,74.0351,6.139,0.8,0.8,0.8
45.2477,73.7822,7.022,0.8,0.8,0.8
50.2687,74.1161,4.4391,0.8,0.8,0.8
50.0521,88.4579,2.5032,0.8,0.8,0.8
53.3882,73.7532,5.6388,0.8,0.8,0.8
57.0698,82.9912,3.7533,0.8,0.8,0.8
50.328,70.354,7.9055,0.8,0.8,0.8
47.2967,73.6035,-1.2921,0.8,0.8,0.8
50.104,77.4369,4.2644,0.8,0.8,0.8
51.1105,77.8061,4.7372,0.8,0.8,0.8
54.8456,73.8762,-1.3,0.8,0.8,0.8
48.5399,70.4053,2.5869,0.8,0.8,0.8
58.0089,79.8284,3.5709,0.8,0.8,0.8
46.4296,72.8424,2.0953,0.8,0.8,0.8
52.057,81.8202,2.899,0.8,0.8,0.8
50.9604,76.0201,-1.3042,0.8,0.8,0.8
49.6087,74.1708,-0.411,0.8,0.8,0.8
53.6428,79.3355,-1.2909,0.8,0.8,0.8
56.4292,82.1056,-0.6034,0.8,0.8,0.8
45.977,73.069,-0.7268,0.8,0.8,0.8
55.4826,72.3119,2.6366,0.8,0.8,0.8
50.3462,88.5531,-1.1135,0.8,0.8,0.8
48.6227,71.1068,-0.6734,0.8,0.8,0.8
46.6016,71.0712,7.636,0.8,0.8,0.8
56.0534,72.5197,-1.306,0.8,0.8,0.8
48.9749,73.1928,-1.2971,0.8,0.8,0.8
56.2907,75.231,0.9252,0.8,0.8,0.8
53.8284,73.2069,6.3352,0.8,0.8,0.8
56.7647,82.95,2.6555,0.8,0.8,0.8
49.3632,72.1815,8.7206,0.8,0.8,0.8
56.5895,81.8083,-0.2324,0.8,0.8,0.8
51.9903,85.0687,-1.2859,0.8,0.8,0.8
54.2187,73.9641,4.536,0.8,0.8,0.8
56.1524,82.751,0.878,0.8,0.8,0.8
50.9137,87.9078,-1.2887,0.8,0.8,0.8
51.8194,76.3793,5.4248,0.8,0.8,0.8
50.3719,76.6597,8.7238,0.8,0.8,0.8
49.0468,75.3763,-1.2946,0.8,0.8,0.8
46.7649,70.5975,0.8432,0.8,0.8,0.8
59.3591,73.9426,4.1101,0.8,0.8,0.8
58.1498,74.5128,-0.3876,0.8,0.8,0.8
49.6093,76.4571,-1.3018,0.8,0.8,0.8
55.0411,71.8136,1.5444,0.8,0.8,0.8
57.2611,75.7993,-1.2978,0.8,0.8,0.8
46.6106,71.3011,2.8562,0.8,0.8,0.8
57.1545,78.0485,4.2174,0.8,0.8,0.8
48.6457,70.0157,2.4646,0.8,0.8,0.8
53.5708,73.0172,-1.3074,0.8,0.8,0.8
55.0322,81.0273,-0.0596,0.8,0.8,0.8
58.8061,76.8112,-0.4567,0.8,0.8,0.8
47.9003,75.1898,-0.3675,0.8,0.8,0.8
54.9901,73.5501,4.5279,0.8,0.8,0.8
55.2127,74.7105,0.2528,0.8,0.8,0.8
57.338,80.762,3.7815,0.8,0.8,0.8
53.7467,71.3672,4.1088,0.8,0.8,0.8
51.715,72.1071,-0.5538,0.8,0.8,0.8
59.5107,73.6694,1.6218,0.8,0.8,0.8
58.8173,77.2021,2.8453,0.8,0.8,0.8
52.5404,80.2572,3.0519,0.8,0.8,0.8
51.7818,74.6512,-1.306,0.8,0.8,0.8
49.7148,77.3232,0.138,0.8,0.8,0.8
54.0248,76.4959,-1.289,0.8,0.8,0.8
55.3045,75.0745,-1.3034,0.8,0.8,0.8
45.8669,73.3066,-0.2992,0.8,0.8,0.8
53.4649,85.0775,1.0092,0.8,0.8,0.8
48.5898,70.0625,6.8205,0.8,0.8,0.8
56.6493,78.4238,-0.2502,0.8,0.8,0.8
55.3737,73.5762,-0.6633,0.8,0.8,0.8
49.2279,76.6321,-1.3034,0.8,0.8,0.8
45.3308,73.1201,8.0116,0.8,0.8,0.8
55.6264,79.0444,-1.2923,0.8,0.8,0.8
53.4301,79.1143,3.8344,0.8,0.8,0.8
51.2573,75.8372,1.5075,0.8,0.8,0.8
52.8115,77.05,-1.2891,0.8,0.8,0.8
54.415,72.7704,-0.9275,0.8,0.8,0.8
54.8435,76.2331,4.1202,0.8,0.8,0.8
46.6807,70.8446,4.6705,0.8,0.8,0.8
58.3516,76.6394,-1.295,0.8,0.8,0.8
52.6558,74.4368,7.2057,0.8,0.8,0.8
51.6203,81.7342,-1.2856,0.8,0.8,0.8
54.5975,73.5498,4.8327,0.8,0.8,0.8
55.7911,76.846,4.1235,0.8,0.8,0.8
48.413,76.9348,1.9236,0.8,0.8,0.8
55.0256,72.2883,6.4393,0.8,0.8,0.8
51.6066,77.7337,-1.2935,0.8,0.8,0.8
46.3187,74.7464,0.2834,0.8,0.8,0.8
49.04,72.174,8.7233,0.8,0.8,0.8
47.1573,73.5705,-1.2904,0.8,0.8,0.8
47.4414,77.5437,8.7378,0.8,0.8,0.8
56.8216,82.9266,2.2431,0.8,0.8,0.8
46.8259,76.5558,8.6659,0.8,0.8,0.8
52.0542,75.0966,8.467,0.8,0.8,0.8
46.4924,71.7663,1.6727,0.8,0.8,0.8
52.4532,80.5403,1.4726,0.8,0.8,0.8
58.4686,78.3647,2.6796,0.8,0.8,0.8
51.3233,81.9393,0.6641,0.8,0.8,0.8
48.4457,71.1071,8.7181,0.8,0.8,0.8
56.0182,82.7008,3.0321,0.8,0.8,0.8
46.6893,76.4396,8.7346,0.8,0.8,0.8
45.7112,73.8978,-1.1512,0.8,0.8,0.8
47.0844,69.9807,5.9328,0.8,0.8,0.8
57.4653,81.6863,-0.0917,0.8,0.8,0.8
46.8921,70.178,7.2221,0.8,0.8,0.8
48.8889,73.6777,8.2083,0.8,0.8,0.8
52.411,74.9039,4.4074,0.8,0.8,0.8
51.8868,71.3272,1.7832,0.8,0.8,0.8
58.5132,73.3235,2.1423,0.8,0.8,0.8
52.5909,82.168,-1.2887,0.8,0.8,0.8
53.1807,83.8655,-1.2854,0.8,0.8,0.8
45.7537,73.7013,0.9881,0.8,0.8,0.8
46.4521,71.5434,6.3558,0.8,0.8,0.8
51.9803,89.0457,1.6343,0.8,0.8,0.8
54.2844,74.0147,4.2218,0.8,0.8,0.8
46.3914,72.9723,-0.9173,0.8,0.8,0.8
56.6781,79.8416,3.8488,0.8,0.8,0.8
57.7671,73.985,-1.2291,0.8,0.8,0.8
56.8627,72.2776,7.5734,0.8,0.8,0.8
45.5198,76.0518,-0.0151,0.8,0.8,0.8
51.6238,83.2414,2.34,0.8,0.8,0.8
58.8771,74.5585,4.124,0.8,0.8,0.8
55.0806,72.3926,2.187,0.8,0.8,0.8
58.6518,77.74,2.6717,0.8,0.8,0.8
47.844,70.4543,8.719,0.8,0.8,0.8
59.5045,73.6864,2.0425,0.8,0.8,0.8
54.8716,73.7172,-1.3,0.8,0.8,0.8
54.8921,77.3568,-1.2897,0.8,0.8,0.8
51.6199,71.703,8.6271,0.8,0.8,0.8
52.4102,82.4719,-1.2886,0.8,0.8,0.8
59.1373,75.7865,2.1133,0.8,0.8,0.8
51.6533,71.8346,2.3135,0.8,0.8,0.8
47.0439,69.9701,5.1354,0.8,0.8,0.8
58.3496,73.2858,2.2653,0.8,0.8,0.8
55.3864,72.666,5.6937,0.8,0.8,0.8
52.1618,78.0509,0.9426,0.8,0.8,0.8
54.8181,80.6203,-1.0748,0.8,0.8,0.8
46.7071,70.7588,7.9246,0.8,0.8,0.8
51.7304,82.9093,-0.1527,0.8,0.8,0.8
51.848,82.5153,0.0701,0.8,0.8,0.8
46.3491,72.209,2.4171,0.8,0.8,0.8
49.448,75.7774,4.5385,0.8,0.8,0.8
52.7784,79.464,3.1775,0.8,0.8,0.8
57.6738,74.6615,4.1193,0.8,0.8,0.8
48.0216,76.2935,8.7288,0.8,0.8,0.8
55.0439,76.7412,-1.2881,0.8,0.8,0.8
57.6954,77.6576,4.2116,0.8,0.8,0.8
52.8661,79.2552,-0.2475,0.8,0.8,0.8
52.1661,81.4634,3.1762,0.8,0.8,0.8
48.8266,75.7291,-1.291,0.8,0.8,0.8
51.1663,77.6099,-1.3035,0.8,0.8,0.8
58.4609,78.3738,2.1721,0.8,0.8,0.8
46.8103,70.4282,6.5335,0.8,0.8,0.8
51.9454,75.8981,6.3396,0.8,0.8,0.8
52.4543,86.1985,3.145,0.8,0.8,0.8
53.9438,74.2623,4.6147,0.8,0.8,0.8
56.0173,82.7004,2.9548,0.8,0.8,0.8
50.041,77.4191,-0.8135,0.8,0.8,0.8
52.8676,79.1817,1.8758,0.8,0.8,0.8
52.1619,71.5278,4.6453,0.8,0.8,0.8
48.9177,71.3971,-1.1503,0.8,0.8,0.8
52.9749,78.8223,0.9309,0.8,0.8,0.8
50.8542,77.2423,4.8767,0.8,0.8,0.8
52.9765,78.893,0.0794,0.8,0.8,0.8
50.6242,74.3221,4.9535,0.8,0.8,0.8
55.1443,74.8851,0.876,0.8,0.8,0.8
56.2945,82.5252,-0.4254,0.8,0.8,0.8
58.2419,73.1556,0.8972,0.8,0.8,0.8
52.1187,71.4015,5.883,0.8,0.8,0.8
47.8319,76.9413,8.2274,0.8,0.8,0.8
50.1381,73.3968,8.7211,0.8,0.8,0.8
54.8848,73.876,-0.5432,0.8,0.8,0.8
57.2566,72.6297,0.7355,0.8,0.8,0.8
51.3357,84.192,-0.7044,0.8,0.8,0.8
46.8155,70.4136,5.8785,0.8,0.8,0.8
58.194,72.6823,2.193,0.8,0.8,0.8
54.7534,77.7305,4.1327,0.8,0.8,0.8
53.2543,76.2196,4.1451,0.8,0.8,0.8
51.0814,77.7281,4.2076,0.8,0.8,0.8
54.0792,74.3884,4.2116,0.8,0.8,0.8
53.5956,71.5846,-1.0337,0.8,0.8,0.8
55.0187,80.5207,-0.102,0.8,0.8,0.8
46.2948,72.0302,5.9816,0.8,0.8,0.8
46.3663,75.2057,3.2921,0.8,0.8,0.8
59.2069,74.2903,-1.3025,0.8,0.8,0.8
54.7626,78.4153,3.9091,0.8,0.8,0.8
53.6284,81.5859,3.5988,0.8,0.8,0.8
45.868,75.7004,3.1841,0.8,0.8,0.8
59.5939,74.2274,0.7611,0.8,0.8,0.8
48.9727,70.9121,8.7211,0.8,0.8,0.8
56.6798,77.0644,-1.2944,0.8,0.8,0.8
47.769,70.0725,6.0558,0.8,0.8,0.8
51.7015,72.0508,-0.6547,0.8,0.8,0.8
48.6418,75.7182,-1.3008,0.8,0.8,0.8
45.7914,75.7292,7.4334,0.8,0.8,0.8
52.6212,78.1915,2.6131,0.8,0.8,0.8
51.3858,88.8665,-0.2798,0.8,0.8,0.8
58.4578,78.3758,2.0511,0.8,0.8,0.8
46.9555,76.4951,2.2126,0.8,0.8,0.8
58.1368,75.7174,4.133,0.8,0.8,0.8
51.5783,73.9448,-1.3054,0.8,0.8,0.8
55.4539,73.0319,0.8295,0.8,0.8,0.8
52.7834,78.2351,1.5486,0.8,0.8,0.8
55.3214,80.1748,3.7791,0.8,0.8,0.8
58.7895,77.2524,3.6035,0.8,0.8,0.8
59.3071,75.1597,1.0621,0.8,0.8,0.8
51.2577,71.8889,8.7241,0.8,0.8,0.8
50.5255,77.5663,0.4388,0.8,0.8,0.8
56.8365,72.6509,4.5803,0.8,0.8,0.8
48.8932,74.0553,2.5668,0.8,0.8,0.8
51.9904,73.3449,-1.3065,0.8,0.8,0.8
54.6388,76.0314,4.1252,0.8,0.8,0.8
49.9862,73.5262,8.7212,0.8,0.8,0.8
48.1317,72.8074,-1.298,0.8,0.8,0.8
47.5794,73.7552,-1.2941,0.8,0.8,0.8
47.8168,76.7504,-0.7805,0.8,0.8,0.8
52.2153,81.2711,-1.2876,0.8,0.8,0.8
55.405,73.2075,0.0654,0.8,0.8,0.8
50.1231,70.6542,4.5731,0.8,0.8,0.8
52.4388,88.1228,2.0053,0.8,0.8,0.8
50.4952,72.6618,8.724,0.8,0.8,0.8
59.2445,75.7593,3.7113,0.8,0.8,0.8
47.1664,70.0077,4.4772,0.8,0.8,0.8
55.6576,76.2365,4.1168,0.8,0.8,0.8
52.171,76.246,-1.2878,0.8,0.8,0.8
51.4429,71.1469,0.7943,0.8,0.8,0.8
58.4447,75.7421,4.1372,0.8,0.8,0.8
54.59,72.801,-0.873,0.8,0.8,0.8
49.1286,73.1097,8.7234,0.8,0.8,0.8
51.4884,77.8576,3.398,0.8,0.8,0.8
55.0755,76.7729,4.1182,0.8,0.8,0.8
59.7055,74.2485,3.2473,0.8,0.8,0.8
49.3141,77.201,-0.7844,0.8,0.8,0.8
52.2263,78.0673,-1.2606,0.8,0.8,0.8
50.0705,73.0664,8.7221,0.8,0.8,0.8
51.5618,71.3494,7.227,0.8,0.8,0.8
53.9079,71.682,-0.984,0.8,0.8,0.8
51.6373,71.3581,3.4699,0.8,0.8,0.8
59.5898,74.6228,3.5421,0.8,0.8,0.8
50.0483,88.4593,0.1616,0.8,0.8,0.8
59.3047,74.2368,-1.3023,0.8,0.8,0.8
56.9937,73.7024,4.1502,0.8,0.8,0.8
54.7339,72.1845,5.4875,0.8,0.8,0.8
56.6862,78.0003,-0.8385,0.8,0.8,0.8
53.765,71.6729,8.3323,0.8,0.8,0.8
49.0909,73.5781,4.7297,0.8,0.8,0.8
52.9725,76.9014,4.1356,0.8,0.8,0.8
56.4594,80.2242,3.8077,0.8,0.8,0.8
51.4707,87.734,2.9779,0.8,0.8,0.8
53.5791,76.2587,-1.2838,0.8,0.8,0.8
47.0539,76.5238,2.8873,0.8,0.8,0.8
49.94,75.282,-1.2945,0.8,0.8,0.8
50.8808,74.1168,4.7035,0.8,0.8,0.8
53.9467,80.2449,-1.2828,0.8,0.8,0.8
55.2977,79.6918,-0.0915,0.8,0.8,0.8
57.8296,80.4416,2.1236,0.8,0.8,0.8
58.8099,77.2101,-0.2925,0.8,0.8,0.8
58.489,78.263,0.5474,0.8,0.8,0.8
54.366,77.3863,-1.2943,0.8,0.8,0.8
53.9015,77.7466,3.9507,0.8,0.8,0.8
49.4676,75.0109,-1.293,0.8,0.8,0.8
55.9183,74.2427,4.1603,0.8,0.8,0.8
56.5045,78.5411,3.9495,0.8,0.8,0.8
53.771,75.2728,4.1722,0.8,0.8,0.8
53.2375,78.1441,-1.2914,0.8,0.8,0.8
51.9641,83.8485,-1.2922,0.8,0.8,0.8
55.7589,79.0391,-0.4926,0.8,0.8,0.8
51.9583,71.299,6.3842,0.8,0.8,0.8
52.9819,71.7128,4.5747,0.8,0.8,0.8
57.627,81.1095,1.722,0.8,0.8,0.8
54.9468,72.0969,2.6952,0.8,0.8,0.8
54.8888,76.3417,4.1196,0.8,0.8,0.8
58.8576,77.0505,3.6184,0.8,0.8,0.8
58.0811,79.6337,2.9391,0.8,0.8,0.8
57.6148,77.0062,4.1675,0.8,0.8,0.8
51.9741,75.8173,6.3895,0.8,0.8,0.8
58.1217,72.9045,-1.0247,0.8,0.8,0.8
54.2205,81.1358,-1.2843,0.8,0.8,0.8
51.8209,76.3056,5.9739,0.8,0.8,0.8
58.1453,79.4321,1.885,0.8,0.8,0.8
53.7011,79.44,3.8088,0.8,0.8,0.8
54.392,71.5617,4.4155,0.8,0.8,0.8
58.3376,73.7374,4.1289,0.8,0.8,0.8
48.8697,76.6581,0.4391,0.8,0.8,0.8
46.4629,71.5225,5.4532,0.8,0.8,0.8
52.2599,75.3724,5.435,0.8,0.8,0.8
49.2862,70.1789,8.2892,0.8,0.8,0.8
52.4167,78.0715,0.6352,0.8,0.8,0.8
48.8237,75.1207,-0.1569,0.8,0.8,0.8
49.2636,74.2705,2.3399,0.8,0.8,0.8
46.9001,70.1897,-0.132,0.8,0.8,0.8
51.8986,73.0409,-0.627,0.8,0.8,0.8
55.1066,73.6537,0.353,0.8,0.8,0.8
53.6221,77.9467,-1.292,0.8,0.8,0.8
46.883,70.2374,0.7621,0.8,0.8,0.8
55.0185,82.3641,1.0266,0.8,0.8,0.8
50.2594,73.0031,8.7181,0.8,0.8,0.8
58.2821,78.9401,3.8134,0.8,0.8,0.8
53.3177,82.6143,3.493,0.8,0.8,0.8
45.24,73.7952,7.4649,0.8,0.8,0.8
55.1653,74.6925,0.1892,0.8,0.8,0.8
49.6915,75.6633,5.2962,0.8,0.8,0.8
53.0849,78.4613,3.0348,0.8,0.8,0.8
57.8118,80.5409,0.4556,0.8,0.8,0.8
51.7905,82.6994,1.3392,0.8,0.8,0.8
49.0609,77.1321,1.9843,0.8,0.8,0.8
49.1157,70.9279,-0.9066,0.8,0.8,0.8
51.692,71.3711,-0.0623,0.8,0.8,0.8
50.3478,88.5526,-0.3604,0.8,0.8,0.8
48.017,70.1421,-0.0656,0.8,0.8,0.8
55.1935,72.4381,8.3552,0.8,0.8,0.8
47.9155,76.7829,2.555,0.8,0.8,0.8
49.5401,76.8071,1.0816,0.8,0.8,0.8
48.6448,75.5308,3.6275,0.8,0.8,0.8
55.2251,74.0654,0.6828,0.8,0.8,0.8
47.4698,69.9784,0.2979,0.8,0.8,0.8
46.8707,72.8614,8.7276,0.8,0.8,0.8
52.3888,77.0146,4.5998,0.8,0.8,0.8
53.4639,85.0789,0.9152,0.8,0.8,0.8
53.6724,83.4534,4.9885,0.8,0.8,0.8
55.7556,74.9069,4.1347,0.8,0.8,0.8
50.6679,77.61,0.495,0.8,0.8,0.8
50.8695,76.647,-1.3028,0.8,0.8,0.8
49.9237,75.8229,0.9849,0.8,0.8,0.8
45.8822,73.3153,4.4401,0.8,0.8,0.8
52.9396,74.3655,5.12,0.8,0.8,0.8
52.3852,80.7527,-0.1092,0.8,0.8,0.8
53.0677,84.9338,4.9856,0.8,0.8,0.8
57.8075,74.5672,4.1194,0.8,0.8,0.8
57.8914,74.8655,4.1156,0.8,0.8,0.8
49.8819,73.5503,8.722,0.8,0.8,0.8
58.259,78.9886,1.4333,0.8,0.8,0.8
51.8542,82.5001,1.6182,0.8,0.8,0.8
45.237,75.3285,3.2725,0.8,0.8,0.8
54.9819,72.1252,8.009,0.8,0.8,0.8
59.6162,74.5384,0.4887,0.8,0.8,0.8
45.1603,75.5466,-0.9998,0.8,0.8,0.8
53.2598,76.5981,4.137,0.8,0.8,0.8
