x,y,z,r,g,b,nx,ny,nz
500179.937500,5418512.500000,282.010010,0.8,0.8,0.8,-0.026547,0.055370,0.998113
499766.062500,5418781.500000,246.809998,0.8,0.8,0.8,-0.050799,0.031286,-0.998219
499657.937500,5419161.500000,265.950012,0.8,0.8,0.8,-0.056493,0.047533,-0.997271
500055.937500,5418652.500000,273.049988,0.8,0.8,0.8,-0.002865,0.042851,0.999077
499779.687500,5418562.000000,250.729996,0.8,0.8,0.8,-0.083621,0.159783,0.983604
500374.875000,5418872.000000,255.160004,0.8,0.8,0.8,-0.025688,-0.048345,-0.998500
500145.781250,5418660.000000,273.929993,0.8,0.8,0.8,0.001117,0.101486,0.994836
500076.812500,5418783.500000,263.739990,0.8,0.8,0.8,-0.863558,0.108893,-0.492352
499539.031250,5418362.500000,266.660004,0.8,0.8,0.8,0.095958,0.069137,0.992981
499689.625000,5418563.500000,249.259995,0.8,0.8,0.8,-0.016009,0.316452,0.948473
500170.875000,5418886.500000,256.010010,0.8,0.8,0.8,0.485894,0.126727,-0.864781
499572.812500,5418582.500000,249.070007,0.8,0.8,0.8,-0.015184,-0.101954,0.994673
499467.156250,5419412.000000,310.670013,0.8,0.8,0.8,-0.073376,0.112163,-0.990977
500171.593750,5418833.500000,255.710007,0.8,0.8,0.8,0.008792,-0.003755,-0.999954
500544.156250,5419226.500000,244.020004,0.8,0.8,0.8,-0.013319,0.024658,-0.999607
499738.812500,5419031.000000,256.239990,0.8,0.8,0.8,-0.044259,0.033797,-0.998448
499945.343750,5419195.000000,253.619995,0.8,0.8,0.8,-0.032889,0.049170,-0.998249
499942.125000,5418903.500000,244.220001,0.8,0.8,0.8,0.004395,0.012853,-0.999908
500123.156250,5418559.500000,278.989990,0.8,0.8,0.8,-0.014150,0.029269,0.999471
499518.875000,5418840.500000,254.580002,0.8,0.8,0.8,-0.105179,0.086294,-0.990702
500198.250000,5418612.500000,277.200012,0.8,0.8,0.8,-0.001733,0.037882,0.999281
499487.062500,5418832.000000,255.630005,0.8,0.8,0.8,-0.040238,0.050212,-0.997928
499728.875000,5419323.500000,270.309998,0.8,0.8,0.8,-0.088682,0.066981,-0.993805
499483.125000,5419400.500000,307.970001,0.8,0.8,0.8,-0.015498,0.166313,-0.985951
499479.718750,5418489.000000,253.649994,0.8,0.8,0.8,-0.144985,0.004551,0.989423
499654.968750,5418673.000000,248.210007,0.8,0.8,0.8,-0.081254,-0.088228,-0.992781
500203.093750,5419424.500000,275.549988,0.8,0.8,0.8,0.032521,0.426894,-0.903717
499667.625000,5419394.500000,288.519989,0.8,0.8,0.8,-0.215051,0.209922,-0.953775
499707.218750,5418344.000000,274.869995,0.8,0.8,0.8,0.141920,0.386250,0.911411
499957.187500,5419133.500000,251.210007,0.8,0.8,0.8,-0.043372,0.015065,-0.998945
499910.125000,5418827.500000,244.899994,0.8,0.8,0.8,0.006334,-0.003236,-0.999975
500321.937500,5419025.000000,244.199997,0.8,0.8,0.8,-0.004128,-0.000090,-0.999992
499988.906250,5418484.500000,278.029999,0.8,0.8,0.8,-0.037811,0.087094,0.995482
500027.468750,5419173.000000,250.179993,0.8,0.8,0.8,-0.018619,0.034715,-0.999224
499919.687500,5418634.500000,268.519989,0.8,0.8,0.8,-0.605373,0.192167,0.772395
499696.187500,5419149.000000,263.019989,0.8,0.8,0.8,-0.055536,0.034017,-0.997877
500468.656250,5419081.000000,243.600006,0.8,0.8,0.8,0.159425,0.036494,-0.986535
500219.375000,5418933.500000,268.739990,0.8,0.8,0.8,-0.544273,0.396637,-0.739220
499615.250000,5418652.500000,256.859985,0.8,0.8,0.8,-0.543533,0.351642,-0.762181
499531.406250,5418692.500000,258.279999,0.8,0.8,0.8,-0.226523,-0.142424,-0.963537
499572.375000,5418380.500000,262.209991,0.8,0.8,0.8,0.008125,0.176736,0.984225
500490.468750,5419058.500000,243.740005,0.8,0.8,0.8,0.009132,0.073678,-0.997240
500384.250000,5419429.000000,328.859985,0.8,0.8,0.8,-0.396904,0.763949,0.508771
499695.937500,5418440.000000,272.769989,0.8,0.8,0.8,0.038957,0.171185,0.984468
499702.750000,5419166.000000,263.220001,0.8,0.8,0.8,-0.062519,0.029480,-0.997608
500117.968750,5419094.000000,246.440002,0.8,0.8,0.8,-0.015164,0.031080,-0.999402
499831.656250,5419296.000000,264.309998,0.8,0.8,0.8,-0.017343,0.093228,-0.995494
500164.406250,5419104.000000,246.119995,0.8,0.8,0.8,0.005243,0.038227,-0.999255
500278.937500,5419136.000000,265.940002,0.8,0.8,0.8,-0.163677,-0.712253,0.682572
499932.156250,5419202.500000,254.550003,0.8,0.8,0.8,-0.033378,0.063025,-0.997454
499640.187500,5418668.000000,272.399994,0.8,0.8,0.8,-0.114033,-0.705750,0.699223
499510.968750,5418993.000000,262.320007,0.8,0.8,0.8,-0.046932,0.052108,-0.997538
499852.281250,5418366.000000,282.679993,0.8,0.8,0.8,-0.014774,0.057619,0.998229
500397.718750,5419392.500000,264.950012,0.8,0.8,0.8,0.165622,0.386313,-0.907376
500297.750000,5418900.000000,253.649994,0.8,0.8,0.8,0.076738,-0.105910,-0.991410
499611.093750,5418396.500000,256.799988,0.8,0.8,0.8,-0.076672,0.061261,0.995173
499978.781250,5418909.500000,244.210007,0.8,0.8,0.8,0.019859,-0.009198,-0.999760
499534.937500,5418468.000000,251.339996,0.8,0.8,0.8,-0.069590,0.061958,0.995650
499464.250000,5419402.500000,309.940002,0.8,0.8,0.8,-0.090939,0.116751,-0.988989
500014.125000,5419202.000000,251.679993,0.8,0.8,0.8,-0.026426,0.040960,-0.998811
499923.437500,5419033.000000,250.320007,0.8,0.8,0.8,-0.023839,0.045397,-0.998685
499683.781250,5419207.000000,286.790009,0.8,0.8,0.8,0.347862,0.276164,-0.895950
499896.750000,5419198.000000,254.779999,0.8,0.8,0.8,-0.031173,0.064597,-0.997424
500275.250000,5418787.500000,264.239990,0.8,0.8,0.8,-0.030326,-0.117863,-0.992567
500057.281250,5418697.000000,271.170013,0.8,0.8,0.8,0.017810,0.039648,0.999055
500166.718750,5418393.000000,293.260010,0.8,0.8,0.8,0.103890,0.184706,0.977287
500016.562500,5418801.000000,246.690002,0.8,0.8,0.8,-0.000753,-0.392620,-0.919701
499685.281250,5418447.500000,263.179993,0.8,0.8,0.8,-0.288014,0.413420,0.863789
499556.750000,5418461.500000,259.730011,0.8,0.8,0.8,-0.099099,-0.099212,0.990119
499615.625000,5419109.500000,264.859985,0.8,0.8,0.8,-0.036338,0.043576,-0.998389
500100.437500,5418955.000000,244.220001,0.8,0.8,0.8,0.001106,-0.005921,-0.999982
500033.843750,5418338.000000,287.339996,0.8,0.8,0.8,-0.019358,0.100115,0.994788
499774.687500,5418841.000000,246.800003,0.8,0.8,0.8,-0.042914,0.054188,-0.997608
499639.625000,5418698.500000,244.399994,0.8,0.8,0.8,-0.055562,0.183148,-0.981514
499509.156250,5419077.500000,267.239990,0.8,0.8,0.8,-0.050111,0.078370,-0.995664
500178.000000,5418961.500000,247.600006,0.8,0.8,0.8,-0.098521,0.047153,-0.994017
499688.125000,5419000.000000,257.739990,0.8,0.8,0.8,-0.046501,0.034293,-0.998329
499892.968750,5419396.000000,272.209991,0.8,0.8,0.8,-0.037723,0.075807,-0.996409
499698.281250,5418512.000000,257.299988,0.8,0.8,0.8,-0.018923,-0.098741,0.994933
500158.843750,5418399.000000,294.899994,0.8,0.8,0.8,0.176955,0.291949,0.939922
499968.406250,5418370.500000,284.010010,0.8,0.8,0.8,-0.010118,0.067963,0.997637
499681.968750,5419139.000000,263.500000,0.8,0.8,0.8,-0.058098,0.036195,-0.997654
499489.656250,5419187.000000,282.179993,0.8,0.8,0.8,-0.104269,0.085208,-0.990892
500146.625000,5419180.500000,249.610001,0.8,0.8,0.8,-0.037251,-0.195332,-0.980030
500427.343750,5418984.500000,245.740005,0.8,0.8,0.8,0.032410,-0.096287,-0.994826
500465.437500,5418819.000000,258.769989,0.8,0.8,0.8,0.020337,-0.063081,-0.997801
500259.375000,5419364.000000,273.500000,0.8,0.8,0.8,0.871949,-0.160796,-0.462438
499919.281250,5418474.000000,274.130005,0.8,0.8,0.8,0.091078,0.257218,0.962052
499839.500000,5418427.500000,278.829987,0.8,0.8,0.8,-0.024841,0.065535,0.997541
499579.718750,5418672.500000,245.759995,0.8,0.8,0.8,0.060993,-0.183249,-0.981173
499978.906250,5418771.500000,260.950012,0.8,0.8,0.8,0.018033,0.875913,0.482131
500458.531250,5419143.000000,268.130005,0.8,0.8,0.8,-0.250710,-0.584191,0.771923
499546.625000,5418983.500000,260.380005,0.8,0.8,0.8,-0.031290,0.041040,-0.998667
500014.093750,5419099.500000,248.089996,0.8,0.8,0.8,-0.040992,0.044295,-0.998177
500173.250000,5419378.000000,263.940002,0.8,0.8,0.8,-0.010300,0.181548,-0.983328
499947.875000,5418609.000000,269.209991,0.8,0.8,0.8,-0.162539,0.381092,0.910137
500243.312500,5418914.000000,247.160004,0.8,0.8,0.8,-0.032404,-0.060058,-0.997669
500021.375000,5419192.500000,251.139999,0.8,0.8,0.8,-0.024706,0.040306,-0.998882
499884.906250,5418588.000000,259.119995,0.8,0.8,0.8,-0.051909,0.053851,0.997199
500161.843750,5418960.500000,246.580002,0.8,0.8,0.8,0.010758,0.341963,-0.939652
499509.375000,5419325.500000,294.320007,0.8,0.8,0.8,-0.253765,-0.186833,-0.949050
500034.718750,5418988.000000,244.589996,0.8,0.8,0.8,-0.022584,0.029985,-0.999295
500373.031250,5418798.000000,260.640015,0.8,0.8,0.8,-0.010527,-0.076781,-0.996992
499838.187500,5418874.500000,246.309998,0.8,0.8,0.8,-0.057366,0.074454,-0.995573
500131.406250,5419322.000000,255.770004,0.8,0.8,0.8,0.091004,-0.109800,-0.989779
500107.812500,5419211.500000,251.320007,0.8,0.8,0.8,0.255228,-0.021729,-0.966637
499469.906250,5418596.000000,245.100006,0.8,0.8,0.8,0.107512,-0.102545,0.988901
499766.375000,5418791.500000,250.750000,0.8,0.8,0.8,-0.162702,-0.295456,-0.941400
499698.500000,5419045.500000,258.619995,0.8,0.8,0.8,-0.042318,0.041930,-0.998224
500016.000000,5418909.000000,244.289993,0.8,0.8,0.8,-0.008650,-0.028812,-0.999547
500029.750000,5418756.500000,259.750000,0.8,0.8,0.8,0.093585,0.775456,-0.624427
499478.875000,5418648.500000,252.929993,0.8,0.8,0.8,0.692619,0.653898,-0.304460
499926.687500,5419070.500000,251.029999,0.8,0.8,0.8,-0.022773,-0.004665,-0.999730
499925.062500,5418462.500000,278.200012,0.8,0.8,0.8,-0.036629,0.058152,0.997636
499578.875000,5419329.500000,291.309998,0.8,0.8,0.8,-0.003068,0.156302,-0.987705
500010.281250,5418640.000000,273.510010,0.8,0.8,0.8,-0.041113,0.024416,0.998856
500023.343750,5419160.000000,249.880005,0.8,0.8,0.8,-0.014877,0.023964,-0.999602
500485.500000,5419012.000000,244.880005,0.8,0.8,0.8,-0.007630,-0.069080,-0.997582
499533.593750,5418784.500000,250.440002,0.8,0.8,0.8,-0.028460,0.075429,-0.996745
500032.843750,5418390.000000,283.690002,0.8,0.8,0.8,-0.039372,0.029437,0.998791
500450.437500,5418990.000000,246.229996,0.8,0.8,0.8,0.028746,-0.075034,-0.996767
499487.218750,5418640.500000,247.460007,0.8,0.8,0.8,0.016843,-0.536798,-0.843543
500230.843750,5419071.000000,262.559998,0.8,0.8,0.8,0.057706,0.116140,-0.991555
499881.968750,5418628.500000,247.449997,0.8,0.8,0.8,-0.103891,0.128151,0.986298
499682.843750,5418480.000000,264.570007,0.8,0.8,0.8,-0.037789,-0.113712,0.992795
500417.500000,5418896.500000,253.240005,0.8,0.8,0.8,0.039303,0.026400,-0.998879
500198.531250,5419119.000000,246.089996,0.8,0.8,0.8,-0.014000,0.024338,-0.999606
499845.656250,5418766.500000,247.130005,0.8,0.8,0.8,-0.111845,0.269863,-0.956381
500435.437500,5418945.500000,252.110001,0.8,0.8,0.8,0.062896,-0.203517,-0.977049
499821.406250,5418502.500000,264.500000,0.8,0.8,0.8,-0.114667,0.355751,0.927520
499716.062500,5418708.500000,276.440002,0.8,0.8,0.8,-0.472485,0.793509,0.383539
499746.875000,5419219.500000,262.420013,0.8,0.8,0.8,-0.082777,0.014364,-0.996465
500072.375000,5419429.500000,267.079987,0.8,0.8,0.8,0.067132,0.167085,-0.983654
499532.125000,5418936.000000,258.869995,0.8,0.8,0.8,-0.028441,0.041336,-0.998740
499718.562500,5418803.000000,251.089996,0.8,0.8,0.8,0.088893,-0.020417,-0.995832
499522.093750,5418727.000000,246.910004,0.8,0.8,0.8,0.004242,0.034418,-0.999399
500084.343750,5419226.000000,251.479996,0.8,0.8,0.8,0.088568,-0.002249,-0.996068
499570.843750,5419429.000000,305.859985,0.8,0.8,0.8,-0.110691,0.283431,-0.952583
499754.125000,5418655.500000,243.210007,0.8,0.8,0.8,0.045659,0.226204,-0.973009
499841.406250,5418763.500000,252.800003,0.8,0.8,0.8,-0.050759,0.414660,-0.908560
500156.468750,5418890.500000,251.529999,0.8,0.8,0.8,0.169308,-0.041421,-0.984692
499782.218750,5419073.000000,256.179993,0.8,0.8,0.8,-0.041893,0.039935,-0.998324
499812.843750,5419137.000000,256.670013,0.8,0.8,0.8,-0.065082,0.001876,-0.997878
500153.968750,5418850.500000,267.450012,0.8,0.8,0.8,-0.255891,0.213025,-0.942942
499505.281250,5418662.000000,248.990005,0.8,0.8,0.8,-0.094235,-0.027591,-0.995168
500121.000000,5418978.000000,244.130005,0.8,0.8,0.8,0.001987,-0.005388,-0.999983
500350.843750,5419103.500000,265.640015,0.8,0.8,0.8,0.473594,-0.827914,0.300447
500420.218750,5419209.000000,263.549988,0.8,0.8,0.8,-0.170147,0.608497,-0.775101
499853.093750,5418987.500000,259.899994,0.8,0.8,0.8,-0.309993,-0.127962,-0.942088
500548.593750,5419136.000000,243.809998,0.8,0.8,0.8,-0.002911,0.000791,-0.999995
499607.500000,5419337.500000,289.279999,0.8,0.8,0.8,-0.105183,0.095429,-0.989864
499513.531250,5419329.000000,290.679993,0.8,0.8,0.8,-0.294702,-0.302450,-0.906463
500092.468750,5419141.500000,248.279999,0.8,0.8,0.8,-0.151468,0.053113,-0.987034
499676.875000,5418832.500000,250.100006,0.8,0.8,0.8,-0.033944,0.039285,-0.998651
500390.625000,5419053.000000,243.979996,0.8,0.8,0.8,-0.000544,-0.003359,-0.999994
499564.906250,5418831.500000,253.210007,0.8,0.8,0.8,-0.042639,0.067361,-0.996817
499951.937500,5418498.500000,275.589996,0.8,0.8,0.8,-0.079433,0.016518,0.996703
500215.093750,5419392.000000,267.510010,0.8,0.8,0.8,0.095836,0.263241,-0.959958
500076.625000,5418781.500000,257.059998,0.8,0.8,0.8,0.591132,-0.293715,-0.751195
499701.843750,5418936.500000,254.179993,0.8,0.8,0.8,-0.031416,0.051732,-0.998167
499590.750000,5419325.500000,289.839996,0.8,0.8,0.8,-0.037787,0.119828,-0.992075
500039.843750,5418760.000000,249.100006,0.8,0.8,0.8,0.394072,-0.190301,-0.899162
500393.906250,5419397.000000,311.630005,0.8,0.8,0.8,0.469385,0.120639,0.874714
500153.687500,5418845.000000,255.839996,0.8,0.8,0.8,0.039625,-0.062111,-0.997282
499875.656250,5419077.000000,252.770004,0.8,0.8,0.8,-0.042316,0.010766,-0.999046
499631.812500,5419329.500000,284.649994,0.8,0.8,0.8,-0.209690,0.068667,-0.975354
499924.281250,5419393.500000,270.769989,0.8,0.8,0.8,-0.035731,0.055282,-0.997831
499473.500000,5418442.000000,248.839996,0.8,0.8,0.8,-0.087534,-0.023104,0.995893
499905.968750,5418885.500000,244.020004,0.8,0.8,0.8,-0.007828,0.024047,-0.999680
499883.437500,5418632.500000,247.160004,0.8,0.8,0.8,-0.081323,0.064114,0.994624
500310.250000,5419367.000000,271.250000,0.8,0.8,0.8,-0.297089,0.416554,-0.859198
500185.062500,5419234.000000,251.570007,0.8,0.8,0.8,-0.497454,-0.013547,-0.867385
499743.843750,5418611.500000,247.039993,0.8,0.8,0.8,0.005268,-0.030490,0.999521
499483.750000,5418484.500000,253.250000,0.8,0.8,0.8,-0.119949,0.076488,0.989829
499867.125000,5419336.000000,268.260010,0.8,0.8,0.8,-0.024044,0.094421,-0.995242
499925.375000,5419388.500000,270.470001,0.8,0.8,0.8,-0.033675,0.059288,-0.997673
500177.281250,5419355.000000,259.799988,0.8,0.8,0.8,0.011683,0.149499,-0.988693
500164.500000,5418842.000000,255.610001,0.8,0.8,0.8,-0.074502,0.124005,-0.989481
499746.031250,5418489.000000,260.540009,0.8,0.8,0.8,-0.130722,0.416285,0.899788
499535.031250,5418596.500000,252.160004,0.8,0.8,0.8,0.031758,-0.452999,0.890945
500166.187500,5418365.000000,291.989990,0.8,0.8,0.8,-0.086629,-0.006476,0.996220
499463.187500,5418820.500000,255.949997,0.8,0.8,0.8,-0.031622,0.058858,-0.997765
499848.375000,5418760.000000,245.679993,0.8,0.8,0.8,-0.088420,0.188608,-0.978064
500494.656250,5418984.500000,247.360001,0.8,0.8,0.8,0.012795,-0.087904,-0.996047
500475.500000,5419123.000000,244.089996,0.8,0.8,0.8,-0.003182,-0.001372,-0.999994
499827.031250,5419424.000000,277.510010,0.8,0.8,0.8,-0.038724,0.094441,-0.994777
500097.312500,5418860.000000,268.489990,0.8,0.8,0.8,0.650002,0.758294,0.049878
499508.937500,5419126.500000,271.670013,0.8,0.8,0.8,-0.071065,0.105997,-0.991824
499587.406250,5419414.000000,302.420013,0.8,0.8,0.8,-0.183886,0.076869,-0.979937
499776.812500,5418670.000000,247.100006,0.8,0.8,0.8,0.222300,-0.271342,-0.936460
499580.375000,5418373.500000,265.019989,0.8,0.8,0.8,-0.029697,0.055583,0.998012
499472.562500,5418357.000000,272.200012,0.8,0.8,0.8,-0.291707,-0.955319,0.047665
500160.500000,5419189.500000,249.509995,0.8,0.8,0.8,-0.015052,0.159926,-0.987014
500133.218750,5419113.500000,246.639999,0.8,0.8,0.8,-0.041012,0.219427,-0.974767
500319.218750,5418818.000000,259.079987,0.8,0.8,0.8,-0.016366,-0.096442,-0.995204
499921.218750,5418632.500000,257.880005,0.8,0.8,0.8,-0.223248,0.132785,0.965675
500377.250000,5418940.000000,248.509995,0.8,0.8,0.8,0.108236,-0.352747,-0.929438
500426.531250,5419230.500000,245.369995,0.8,0.8,0.8,0.081840,-0.018668,-0.996471
500402.906250,5419425.000000,274.910004,0.8,0.8,0.8,0.157699,0.437797,-0.885135
499851.218750,5418469.000000,284.829987,0.8,0.8,0.8,-0.171256,0.884836,-0.433286
499824.125000,5418519.500000,272.239990,0.8,0.8,0.8,-0.079166,-0.374870,0.923691
500128.343750,5418994.500000,244.039993,0.8,0.8,0.8,0.009283,-0.012135,-0.999883
499994.625000,5419198.000000,252.149994,0.8,0.8,0.8,-0.031339,0.039914,-0.998712
499762.875000,5418772.500000,246.860001,0.8,0.8,0.8,-0.013524,0.061469,-0.998017
499763.750000,5419160.000000,260.619995,0.8,0.8,0.8,-0.063886,0.022107,-0.997712
500091.562500,5418451.000000,283.119995,0.8,0.8,0.8,0.027217,0.188290,0.981736
500483.750000,5418891.500000,253.880005,0.8,0.8,0.8,0.003578,-0.076934,-0.997030
500244.375000,5419034.000000,252.000000,0.8,0.8,0.8,-0.211097,0.359833,-0.908822
500349.156250,5419166.500000,249.919998,0.8,0.8,0.8,0.267799,-0.957915,-0.103354
499485.343750,5418561.000000,245.600006,0.8,0.8,0.8,-0.032445,-0.001966,0.999472
500059.656250,5418639.000000,273.730011,0.8,0.8,0.8,-0.004878,0.055856,0.998427
500090.343750,5418479.000000,281.040009,0.8,0.8,0.8,-0.027937,0.040961,0.998770
499720.750000,5419023.500000,256.730011,0.8,0.8,0.8,-0.042566,0.033015,-0.998548
499626.656250,5418478.500000,254.880005,0.8,0.8,0.8,0.048837,-0.227002,0.972669
499972.968750,5418376.000000,283.920013,0.8,0.8,0.8,-0.010264,0.065705,0.997786
500224.375000,5418389.500000,291.760010,0.8,0.8,0.8,-0.027487,0.072074,0.997020
499911.187500,5419100.000000,251.690002,0.8,0.8,0.8,-0.039016,0.011217,-0.999176
499859.750000,5419081.000000,253.550003,0.8,0.8,0.8,-0.046067,0.010258,-0.998886
499619.750000,5419125.500000,265.649994,0.8,0.8,0.8,-0.033900,0.057037,-0.997796
499947.593750,5419311.500000,264.019989,0.8,0.8,0.8,-0.013983,0.086960,-0.996114
499913.250000,5419381.000000,270.350006,0.8,0.8,0.8,-0.031459,0.073081,-0.996830
499626.468750,5418895.500000,254.660004,0.8,0.8,0.8,-0.032390,0.067460,-0.997196
499854.750000,5419333.500000,267.970001,0.8,0.8,0.8,-0.004073,0.113289,-0.993554
500156.687500,5418945.500000,249.100006,0.8,0.8,0.8,0.161226,0.002801,-0.986914
499766.031250,5419391.500000,273.739990,0.8,0.8,0.8,-0.023652,0.098773,-0.994829
499829.500000,5419012.000000,252.380005,0.8,0.8,0.8,-0.013463,0.031400,-0.999416
500207.937500,5419299.500000,251.699997,0.8,0.8,0.8,-0.023426,0.058528,-0.998011
500052.125000,5418384.500000,284.709991,0.8,0.8,0.8,-0.057889,0.023571,0.998045
499984.281250,5419041.000000,248.419998,0.8,0.8,0.8,-0.026925,0.007085,-0.999612
499456.031250,5419320.500000,300.790009,0.8,0.8,0.8,-0.130602,0.118397,-0.984340
500296.406250,5418877.500000,253.970001,0.8,0.8,0.8,-0.017014,-0.041767,-0.998983
499535.375000,5418482.000000,255.070007,0.8,0.8,0.8,-0.270607,-0.093054,0.958182
500462.312500,5418933.000000,251.440002,0.8,0.8,0.8,-0.014809,-0.012433,-0.999813
500114.812500,5418778.500000,265.369995,0.8,0.8,0.8,0.346716,-0.486879,-0.801709
499480.812500,5418656.000000,245.279999,0.8,0.8,0.8,-0.062749,-0.044111,-0.997054
500473.562500,5419097.000000,243.919998,0.8,0.8,0.8,-0.045237,-0.109006,-0.993011
500031.593750,5418357.500000,285.510010,0.8,0.8,0.8,-0.014953,0.078380,0.996811
499784.781250,5418908.000000,250.649994,0.8,0.8,0.8,-0.030241,0.034257,-0.998955
500204.406250,5418527.000000,281.619995,0.8,0.8,0.8,-0.023889,0.060110,0.997906
499567.375000,5418799.000000,250.559998,0.8,0.8,0.8,-0.033232,0.076359,-0.996526
500448.343750,5419246.000000,245.500000,0.8,0.8,0.8,0.010161,0.050973,-0.998648
499571.906250,5419359.000000,300.100006,0.8,0.8,0.8,0.065891,0.313332,-0.947355
499661.718750,5419380.000000,289.350006,0.8,0.8,0.8,-0.239547,0.152553,-0.958825
499537.187500,5418515.500000,248.139999,0.8,0.8,0.8,0.084979,-0.128805,0.988022
500121.437500,5419369.000000,262.000000,0.8,0.8,0.8,0.354430,0.217594,-0.909413
499584.562500,5418336.000000,262.100006,0.8,0.8,0.8,0.106935,0.069644,0.991824
499603.531250,5418655.500000,244.949997,0.8,0.8,0.8,-0.068826,-0.121251,-0.990233
499620.406250,5418928.000000,256.589996,0.8,0.8,0.8,-0.021115,0.042411,-0.998877
499770.125000,5418958.500000,252.679993,0.8,0.8,0.8,-0.012199,0.013884,-0.999829
499839.906250,5418723.000000,248.699997,0.8,0.8,0.8,0.563271,-0.456902,-0.688452
499728.625000,5419054.000000,257.750000,0.8,0.8,0.8,-0.046069,0.049010,-0.997735
499787.781250,5418703.500000,244.389999,0.8,0.8,0.8,-0.023314,-0.039972,-0.998929
500352.875000,5418791.500000,261.500000,0.8,0.8,0.8,-0.014036,-0.093043,-0.995563
499603.093750,5418510.000000,250.830002,0.8,0.8,0.8,0.003349,0.012474,0.999917
499475.218750,5419158.500000,287.920013,0.8,0.8,0.8,-0.429350,0.485787,-0.761360
499925.562500,5418988.000000,248.490005,0.8,0.8,0.8,-0.028121,0.047309,-0.998484
499828.812500,5418381.500000,281.500000,0.8,0.8,0.8,-0.014607,0.052658,0.998506
499804.437500,5418716.000000,243.899994,0.8,0.8,0.8,0.012439,-0.030052,-0.999471
499783.500000,5418991.000000,253.070007,0.8,0.8,0.8,-0.038047,0.019918,-0.999077
499622.937500,5418352.500000,259.940002,0.8,0.8,0.8,-0.223644,0.095819,0.969950
500526.843750,5419200.000000,256.529999,0.8,0.8,0.8,-0.913176,-0.399206,0.082123
499670.843750,5419003.500000,258.260010,0.8,0.8,0.8,-0.013937,0.046467,-0.998823
500022.750000,5418795.000000,251.039993,0.8,0.8,0.8,0.278755,-0.959804,-0.032725
500115.500000,5419076.000000,245.889999,0.8,0.8,0.8,-0.008493,0.032471,-0.999437
499617.750000,5418847.000000,252.410004,0.8,0.8,0.8,-0.016993,0.052288,-0.998487
500249.187500,5418957.000000,244.669998,0.8,0.8,0.8,0.005868,-0.024587,-0.999681
500149.531250,5418650.500000,274.880005,0.8,0.8,0.8,0.010981,0.104162,0.994500
499523.281250,5418482.000000,253.949997,0.8,0.8,0.8,0.176517,0.049655,0.983044
499847.937500,5418601.000000,253.240005,0.8,0.8,0.8,-0.075800,0.092424,0.992830
499515.312500,5418875.000000,256.339996,0.8,0.8,0.8,-0.021050,0.031095,-0.999295
500344.687500,5419364.500000,255.880005,0.8,0.8,0.8,0.004163,0.209300,-0.977843
500172.250000,5418948.000000,242.910004,0.8,0.8,0.8,0.099917,-0.136670,-0.985565
500373.625000,5419145.000000,245.630005,0.8,0.8,0.8,-0.136209,0.640425,-0.755846
499914.125000,5418332.000000,286.220001,0.8,0.8,0.8,-0.025663,0.060362,0.997847
499591.781250,5418333.500000,261.630005,0.8,0.8,0.8,0.046415,0.073075,0.996246
499957.218750,5418555.500000,272.359985,0.8,0.8,0.8,-0.009950,0.061786,0.998040
499760.875000,5419195.500000,261.000000,0.8,0.8,0.8,-0.078945,0.011718,-0.996810
499549.593750,5419206.500000,284.109985,0.8,0.8,0.8,-0.459841,0.648216,-0.606928
499629.718750,5419355.000000,288.399994,0.8,0.8,0.8,-0.210287,0.114482,-0.970914
499610.968750,5418604.000000,245.800003,0.8,0.8,0.8,0.219141,-0.075614,0.972759
499686.906250,5418483.500000,262.640015,0.8,0.8,0.8,-0.020336,-0.104505,0.994316
500124.312500,5419199.500000,250.850006,0.8,0.8,0.8,-0.071645,0.234737,-0.969415
499588.781250,5418669.500000,245.580002,0.8,0.8,0.8,0.128532,0.016171,-0.991574
499817.406250,5419318.000000,266.640015,0.8,0.8,0.8,-0.005650,0.090709,-0.995861
499528.562500,5419054.500000,264.959991,0.8,0.8,0.8,-0.035195,0.058574,-0.997663
500314.125000,5419147.500000,264.359985,0.8,0.8,0.8,0.096088,-0.740335,0.665335
499919.437500,5418521.000000,273.579987,0.8,0.8,0.8,-0.045714,0.042646,0.998044
499834.500000,5418990.500000,251.830002,0.8,0.8,0.8,0.095128,-0.122455,-0.987905
500171.500000,5419425.500000,271.700012,0.8,0.8,0.8,-0.067593,0.559730,-0.825914
499562.500000,5418568.500000,246.270004,0.8,0.8,0.8,0.023067,-0.026161,0.999392
500253.093750,5419323.500000,252.339996,0.8,0.8,0.8,-0.007892,0.111550,-0.993728
499819.656250,5418365.500000,282.209991,0.8,0.8,0.8,-0.028542,0.037714,0.998881
499828.125000,5418904.000000,248.500000,0.8,0.8,0.8,-0.054359,0.053093,-0.997109
500405.125000,5419421.500000,274.880005,0.8,0.8,0.8,0.135659,0.177679,-0.974693
500289.656250,5419226.000000,246.820007,0.8,0.8,0.8,-0.014133,0.040776,-0.999068
500502.968750,5418840.000000,257.149994,0.8,0.8,0.8,-0.000488,-0.049503,-0.998774
499851.781250,5418845.000000,244.020004,0.8,0.8,0.8,-0.011543,0.010599,-0.999877
499457.937500,5419222.000000,289.700012,0.8,0.8,0.8,-0.088148,0.111533,-0.989844
499471.375000,5418877.500000,258.559998,0.8,0.8,0.8,-0.051151,0.032883,-0.998149
500120.343750,5418826.000000,269.450012,0.8,0.8,0.8,0.694983,-0.590548,-0.410184
500140.593750,5418646.500000,275.470001,0.8,0.8,0.8,0.004095,0.102990,0.994674
499885.093750,5418407.000000,281.320007,0.8,0.8,0.8,-0.027333,0.050738,0.998338
500157.187500,5419202.000000,250.130005,0.8,0.8,0.8,-0.283394,-0.308484,-0.908034
500174.375000,5418820.000000,262.869995,0.8,0.8,0.8,0.329415,-0.606525,-0.723611
499755.812500,5418916.000000,251.460007,0.8,0.8,0.8,-0.031131,0.036389,-0.998853
500054.156250,5418455.500000,283.350006,0.8,0.8,0.8,-0.063446,0.135067,0.988803
499656.812500,5418953.000000,256.609985,0.8,0.8,0.8,-0.035864,0.033687,-0.998789
499524.437500,5419162.500000,274.410004,0.8,0.8,0.8,-0.105907,0.150545,-0.982914
500210.156250,5418491.000000,284.299988,0.8,0.8,0.8,-0.028553,0.060955,0.997732
500228.500000,5419089.500000,246.449997,0.8,0.8,0.8,-0.019564,0.010465,-0.999754
500500.843750,5419130.500000,243.949997,0.8,0.8,0.8,-0.003649,0.000618,-0.999993
499482.375000,5418656.500000,277.600006,0.8,0.8,0.8,0.036460,-0.367560,-0.929285
500543.156250,5418979.500000,247.839996,0.8,0.8,0.8,-0.027789,-0.187449,-0.981881
500374.593750,5419234.000000,245.809998,0.8,0.8,0.8,0.001142,0.035102,-0.999383
500401.093750,5419047.500000,243.970001,0.8,0.8,0.8,-0.000170,-0.004490,-0.999990
500175.343750,5418862.000000,252.419998,0.8,0.8,0.8,0.485540,-0.211524,-0.848239
500178.625000,5418604.000000,277.730011,0.8,0.8,0.8,0.012257,0.037163,0.999234
499857.000000,5419405.000000,274.279999,0.8,0.8,0.8,-0.039795,0.081571,-0.995873
499725.000000,5418706.000000,253.539993,0.8,0.8,0.8,-0.121095,0.030823,-0.992162
500249.375000,5419229.000000,247.750000,0.8,0.8,0.8,-0.030742,0.025732,-0.999196
500125.968750,5419364.500000,271.269989,0.8,0.8,0.8,0.546424,0.000527,0.837509
500365.781250,5419301.500000,250.149994,0.8,0.8,0.8,-0.002571,0.073776,-0.997271
500344.000000,5418960.500000,246.080002,0.8,0.8,0.8,0.021508,-0.093295,-0.995406
500161.750000,5418503.500000,281.869995,0.8,0.8,0.8,-0.027364,0.048558,0.998446
500027.343750,5418637.000000,273.920013,0.8,0.8,0.8,-0.017637,0.017288,0.999695
500122.906250,5419407.000000,271.950012,0.8,0.8,0.8,0.430452,0.127084,-0.893622
500206.718750,5418848.500000,255.080002,0.8,0.8,0.8,0.161515,-0.282865,-0.945463
500124.500000,5419343.000000,275.070007,0.8,0.8,0.8,0.585244,0.793476,0.166988
499600.312500,5418979.500000,258.760010,0.8,0.8,0.8,-0.024344,0.035142,-0.999086
499702.000000,5418836.000000,249.600006,0.8,0.8,0.8,0.039201,0.009256,-0.999189
500309.000000,5418981.500000,244.550003,0.8,0.8,0.8,0.006960,-0.027745,-0.999591
499771.437500,5418945.500000,253.850006,0.8,0.8,0.8,0.028936,0.038586,-0.998836
500126.125000,5419308.500000,265.820007,0.8,0.8,0.8,0.173201,-0.036650,-0.984204
500120.562500,5418848.000000,259.640015,0.8,0.8,0.8,0.555258,-0.558542,-0.616214
499513.781250,5418493.500000,248.820007,0.8,0.8,0.8,0.153167,0.130725,0.979516
499567.593750,5418467.000000,260.470001,0.8,0.8,0.8,0.022080,-0.031916,0.999247
499690.500000,5418656.000000,243.720001,0.8,0.8,0.8,0.012560,-0.140051,-0.990065
499577.343750,5418591.500000,248.130005,0.8,0.8,0.8,-0.036712,-0.006506,0.999305
499608.437500,5418334.500000,264.130005,0.8,0.8,0.8,-0.164708,0.124970,0.978393
500141.781250,5418898.000000,242.539993,0.8,0.8,0.8,-0.111574,0.060018,-0.991942
499919.156250,5418553.000000,276.910004,0.8,0.8,0.8,0.230695,-0.307522,0.923152
500196.562500,5419392.500000,266.820007,0.8,0.8,0.8,-0.145585,0.034463,-0.988745
500329.218750,5419181.500000,244.940002,0.8,0.8,0.8,-0.004237,0.004577,-0.999981
499943.875000,5419154.500000,252.309998,0.8,0.8,0.8,-0.026019,0.032208,-0.999142
499977.875000,5418389.500000,282.950012,0.8,0.8,0.8,-0.006758,0.060425,0.998150
500345.656250,5418907.000000,252.110001,0.8,0.8,0.8,-0.016603,0.033559,-0.999299
499531.500000,5419150.500000,272.549988,0.8,0.8,0.8,-0.074894,0.104503,-0.991701
499562.562500,5418655.500000,245.520004,0.8,0.8,0.8,0.008770,0.213745,-0.976850
499759.593750,5418980.500000,253.800003,0.8,0.8,0.8,-0.035308,0.027461,-0.998999
500471.875000,5419121.000000,244.080002,0.8,0.8,0.8,-0.002832,-0.000764,-0.999996
499547.406250,5418607.500000,257.230011,0.8,0.8,0.8,0.153148,0.853145,0.498687
499454.843750,5419202.000000,287.730011,0.8,0.8,0.8,-0.077753,0.117621,-0.990010
499989.250000,5418448.500000,279.250000,0.8,0.8,0.8,-0.079847,0.159168,0.984017
499565.937500,5418393.500000,263.920013,0.8,0.8,0.8,-0.010789,0.061833,0.998028
499855.312500,5419005.000000,252.039993,0.8,0.8,0.8,-0.035390,-0.051044,-0.998069
499531.125000,5418369.500000,266.820007,0.8,0.8,0.8,0.067931,0.057063,0.996057
499607.218750,5418404.500000,257.149994,0.8,0.8,0.8,0.129058,0.087218,0.987794
499505.093750,5418654.000000,244.949997,0.8,0.8,0.8,-0.034342,-0.015896,-0.999284
499645.593750,5418696.000000,271.559998,0.8,0.8,0.8,-0.406856,0.499018,0.765146
500008.906250,5418825.000000,244.410004,0.8,0.8,0.8,0.012470,-0.017780,-0.999764
499944.968750,5418675.500000,248.910004,0.8,0.8,0.8,-0.464720,0.461515,0.755672
499591.187500,5418653.500000,243.320007,0.8,0.8,0.8,0.047532,-0.212767,-0.975946
499850.562500,5418384.000000,281.660004,0.8,0.8,0.8,-0.013656,0.053941,0.998451
500198.000000,5419017.000000,251.279999,0.8,0.8,0.8,-0.543301,0.593599,-0.593686
500170.218750,5419122.000000,246.669998,0.8,0.8,0.8,-0.022036,0.032622,-0.999225
500339.625000,5419370.500000,257.200012,0.8,0.8,0.8,-0.091222,0.279349,-0.955846
500091.125000,5418860.500000,274.700012,0.8,0.8,0.8,0.672571,0.739824,0.017587
500220.218750,5418378.000000,292.399994,0.8,0.8,0.8,-0.039681,0.063082,0.997219
500008.125000,5418760.000000,244.720001,0.8,0.8,0.8,0.122746,0.058131,-0.990734
500027.125000,5418511.500000,278.010010,0.8,0.8,0.8,-0.045018,0.033357,0.998429
500382.968750,5419422.500000,276.000000,0.8,0.8,0.8,0.601087,0.424715,-0.676987
499948.656250,5418621.000000,265.609985,0.8,0.8,0.8,-0.440210,0.139794,0.886946
500345.093750,5419373.000000,257.739990,0.8,0.8,0.8,-0.062160,0.331385,-0.941446
500057.187500,5418556.000000,277.839996,0.8,0.8,0.8,-0.034997,0.044175,0.998411
500142.031250,5418924.500000,243.880005,0.8,0.8,0.8,-0.455936,0.012424,-0.889926
499993.468750,5418701.000000,260.839996,0.8,0.8,0.8,-0.000418,-0.177934,0.984042
499709.156250,5418832.000000,248.899994,0.8,0.8,0.8,0.148735,0.025637,-0.988545
499654.906250,5418668.000000,245.169998,0.8,0.8,0.8,-0.038804,-0.043746,-0.998289
500363.062500,5419412.500000,265.559998,0.8,0.8,0.8,-0.161855,0.338662,-0.926883
499467.000000,5418837.000000,256.709991,0.8,0.8,0.8,-0.035611,0.052911,-0.997964
499732.031250,5418537.000000,253.059998,0.8,0.8,0.8,-0.106261,0.194906,0.975049
499526.625000,5418915.000000,258.040009,0.8,0.8,0.8,-0.027126,0.046148,-0.998566
499788.281250,5418808.000000,244.440002,0.8,0.8,0.8,-0.019704,0.023457,-0.999531
499781.875000,5418444.000000,271.679993,0.8,0.8,0.8,-0.360536,-0.031177,0.932224
500052.937500,5418710.000000,269.140015,0.8,0.8,0.8,-0.197717,0.284019,0.938212
499602.750000,5418361.000000,258.429993,0.8,0.8,0.8,0.131514,-0.062835,0.989321
500165.156250,5418944.500000,243.889999,0.8,0.8,0.8,0.182754,-0.218341,-0.958607
500119.937500,5419020.500000,243.770004,0.8,0.8,0.8,-0.004599,0.008682,-0.999952
499912.562500,5419176.000000,253.360001,0.8,0.8,0.8,-0.018590,0.032943,-0.999284
499515.781250,5418500.000000,256.809998,0.8,0.8,0.8,-0.832280,0.486755,0.265290
500233.343750,5418498.500000,284.359985,0.8,0.8,0.8,-0.029317,0.063852,0.997529
499679.906250,5418917.000000,254.369995,0.8,0.8,0.8,-0.040881,0.048934,-0.997965
500157.437500,5419109.000000,246.250000,0.8,0.8,0.8,0.002181,0.047207,-0.998883
500350.781250,5419101.500000,261.380005,0.8,0.8,0.8,0.279386,-0.840409,0.464388
499468.968750,5419009.500000,265.570007,0.8,0.8,0.8,-0.060370,0.066216,-0.995977
499478.968750,5419180.500000,282.470001,0.8,0.8,0.8,-0.076273,-0.021993,-0.996844
499826.781250,5419365.000000,271.329987,0.8,0.8,0.8,0.005012,0.104941,-0.994466
499776.218750,5418536.000000,255.139999,0.8,0.8,0.8,-0.048963,0.122982,0.991200
499486.562500,5419425.500000,310.890015,0.8,0.8,0.8,0.125388,0.387470,-0.913315
499830.468750,5418412.000000,279.640015,0.8,0.8,0.8,-0.019767,0.066909,0.997563
500104.093750,5419341.500000,275.109985,0.8,0.8,0.8,-0.232065,0.006233,-0.972680
500035.593750,5418521.000000,278.109985,0.8,0.8,0.8,-0.041640,0.027392,0.998757
499544.875000,5418467.500000,251.660004,0.8,0.8,0.8,-0.211069,0.104832,0.971833
499623.250000,5418713.500000,246.669998,0.8,0.8,0.8,0.070578,-0.072070,-0.994899
500375.718750,5418823.500000,258.910004,0.8,0.8,0.8,-0.003343,-0.067303,-0.997727
499702.187500,5419317.000000,272.720001,0.8,0.8,0.8,-0.114685,0.072053,-0.990785
499914.437500,5418587.000000,264.549988,0.8,0.8,0.8,-0.069398,0.224910,0.971905
499802.281250,5418457.000000,276.869995,0.8,0.8,0.8,0.034222,-0.039709,0.998625
499848.812500,5419313.500000,265.679993,0.8,0.8,0.8,-0.015400,0.103543,-0.994506
499846.937500,5418557.500000,258.839996,0.8,0.8,0.8,0.037111,0.038413,0.998573
499704.625000,5419288.000000,270.470001,0.8,0.8,0.8,-0.106001,0.062663,-0.992390
499846.875000,5419145.500000,254.979996,0.8,0.8,0.8,-0.044255,0.017041,-0.998875
500385.968750,5419183.500000,247.940002,0.8,0.8,0.8,0.257513,-0.355846,-0.898365
499649.375000,5418659.500000,245.320007,0.8,0.8,0.8,-0.055416,-0.122523,-0.990917
500022.375000,5418491.500000,278.679993,0.8,0.8,0.8,-0.032919,0.057334,0.997812
499464.125000,5418676.000000,260.540009,0.8,0.8,0.8,0.213794,0.221141,-0.951519
500415.875000,5418863.000000,256.149994,0.8,0.8,0.8,-0.015194,-0.066338,-0.997682
500276.687500,5419417.500000,277.190002,0.8,0.8,0.8,0.246416,0.219201,-0.944050
499760.062500,5419134.500000,286.079987,0.8,0.8,0.8,0.125260,0.107622,-0.986269
500226.656250,5419007.000000,253.899994,0.8,0.8,0.8,0.623780,-0.365198,-0.691035
500056.906250,5419164.000000,249.639999,0.8,0.8,0.8,0.021429,0.023544,-0.999493
499506.718750,5418479.000000,253.850006,0.8,0.8,0.8,-0.057699,-0.033171,0.997783
500127.406250,5419183.500000,249.800003,0.8,0.8,0.8,0.116795,-0.089635,-0.989103
499457.093750,5418641.500000,264.000000,0.8,0.8,0.8,0.363993,0.563617,-0.741515
499759.968750,5418841.000000,247.309998,0.8,0.8,0.8,-0.040321,0.047568,-0.998054
500150.125000,5418862.500000,249.490005,0.8,0.8,0.8,-0.131150,0.029525,-0.990923
499938.125000,5419192.000000,253.750000,0.8,0.8,0.8,-0.032602,0.047442,-0.998342
499490.562500,5419308.500000,296.209991,0.8,0.8,0.8,-0.099238,0.110947,-0.988859
499672.156250,5418532.500000,251.279999,0.8,0.8,0.8,-0.098215,0.290321,0.951876
500443.687500,5419420.500000,277.720001,0.8,0.8,0.8,0.454463,0.209023,-0.865894
500229.343750,5418912.000000,250.660004,0.8,0.8,0.8,0.007235,-0.168743,-0.985633
499873.000000,5418418.500000,280.339996,0.8,0.8,0.8,-0.029546,0.053860,0.998111
499468.500000,5418385.500000,269.149994,0.8,0.8,0.8,0.559409,0.027026,0.828451
499719.812500,5418696.000000,268.290009,0.8,0.8,0.8,0.397283,-0.706536,-0.585639
499873.843750,5418612.000000,255.509995,0.8,0.8,0.8,-0.346371,0.350594,0.870122
500005.812500,5418597.500000,273.929993,0.8,0.8,0.8,-0.043617,0.014143,0.998948
499773.937500,5418963.000000,252.789993,0.8,0.8,0.8,-0.020057,0.019740,-0.999604
500325.781250,5418836.500000,257.369995,0.8,0.8,0.8,0.013538,-0.088413,-0.995992
499608.156250,5418927.000000,256.799988,0.8,0.8,0.8,-0.020044,0.039586,-0.999015
499462.531250,5418664.500000,259.570007,0.8,0.8,0.8,-0.552127,0.826153,0.112367
499928.781250,5418369.500000,284.010010,0.8,0.8,0.8,-0.011397,0.059735,0.998149
500088.625000,5418433.500000,285.980011,0.8,0.8,0.8,-0.043875,0.030931,0.998558
500333.437500,5418804.500000,260.390015,0.8,0.8,0.8,-0.000920,-0.098228,-0.995164
499889.843750,5419081.000000,252.320007,0.8,0.8,0.8,-0.036057,0.011775,-0.999280
499785.281250,5418657.500000,243.130005,0.8,0.8,0.8,0.115678,0.012609,-0.993207
499488.312500,5419015.500000,264.700012,0.8,0.8,0.8,-0.057614,0.058210,-0.996641
500009.156250,5418927.500000,244.059998,0.8,0.8,0.8,-0.006903,-0.008262,-0.999942
499947.156250,5418372.000000,283.959991,0.8,0.8,0.8,-0.001552,0.065138,0.997875
499624.375000,5418656.500000,266.980011,0.8,0.8,0.8,0.652169,-0.092119,-0.752455
499946.906250,5418658.000000,256.750000,0.8,0.8,0.8,-0.241983,0.381120,0.892296
500377.031250,5419287.500000,249.089996,0.8,0.8,0.8,-0.016723,0.065089,-0.997739
499832.187500,5418967.000000,255.309998,0.8,0.8,0.8,-0.027945,0.083363,-0.996127
499495.500000,5419351.000000,294.540009,0.8,0.8,0.8,-0.464015,0.162531,-0.870789
499969.093750,5418682.000000,262.720001,0.8,0.8,0.8,-0.169641,0.254996,0.951945
499546.656250,5418934.500000,258.429993,0.8,0.8,0.8,-0.026647,0.042875,-0.998725
500263.625000,5418984.500000,244.440002,0.8,0.8,0.8,-0.002024,-0.002738,-0.999994
499758.968750,5419157.500000,260.619995,0.8,0.8,0.8,-0.041215,0.038035,-0.998426
499812.531250,5418546.500000,253.410004,0.8,0.8,0.8,-0.125546,0.155450,0.979833
500481.718750,5419251.500000,246.220001,0.8,0.8,0.8,-0.164669,0.203365,-0.965156
499868.156250,5418822.000000,244.589996,0.8,0.8,0.8,0.010163,-0.015893,-0.999822
500128.062500,5419229.500000,251.929993,0.8,0.8,0.8,0.069182,-0.061998,-0.995676
499726.625000,5418509.000000,257.559998,0.8,0.8,0.8,0.052609,0.127832,0.990400
499692.937500,5419156.000000,263.529999,0.8,0.8,0.8,-0.059487,0.034374,-0.997637
500140.281250,5418388.500000,289.890015,0.8,0.8,0.8,-0.261569,-0.042227,0.964261
499697.375000,5418612.500000,246.279999,0.8,0.8,0.8,-0.050568,-0.339025,0.939417
499856.125000,5418865.000000,244.589996,0.8,0.8,0.8,-0.041873,0.059999,-0.997320
499614.093750,5418954.000000,257.660004,0.8,0.8,0.8,-0.018342,0.035114,-0.999215
500296.812500,5419183.000000,245.460007,0.8,0.8,0.8,-0.012100,0.016914,-0.999784
500295.750000,5419287.000000,249.479996,0.8,0.8,0.8,-0.004158,0.046962,-0.998888
499826.406250,5418643.000000,246.820007,0.8,0.8,0.8,0.067265,0.067542,0.995446
500488.468750,5419078.000000,254.600006,0.8,0.8,0.8,-0.424509,-0.650033,-0.630277
499724.093750,5418464.500000,261.089996,0.8,0.8,0.8,-0.068239,0.124343,0.989890
499844.343750,5418512.500000,266.429993,0.8,0.8,0.8,-0.099819,-0.058741,0.993270
500037.531250,5418954.500000,243.839996,0.8,0.8,0.8,-0.006967,0.010415,-0.999922
499739.937500,5419396.500000,275.450012,0.8,0.8,0.8,-0.082592,0.117621,-0.989618
500337.000000,5418875.500000,254.190002,0.8,0.8,0.8,0.031427,-0.095296,-0.994953
500074.187500,5419297.000000,255.779999,0.8,0.8,0.8,-0.129021,-0.011706,-0.991573
499545.187500,5418790.000000,250.520004,0.8,0.8,0.8,-0.045077,0.072212,-0.996370
499886.937500,5419327.500000,266.540009,0.8,0.8,0.8,-0.037598,0.080717,-0.996028
500392.687500,5419034.000000,244.070007,0.8,0.8,0.8,0.001253,-0.003341,-0.999994
500264.625000,5419408.500000,273.079987,0.8,0.8,0.8,0.039144,0.267905,-0.962650
500341.031250,5418817.500000,259.279999,0.8,0.8,0.8,0.008359,-0.077305,-0.996973
499936.250000,5418626.000000,271.260010,0.8,0.8,0.8,-0.752001,0.239807,0.613993
499930.281250,5419142.500000,251.910004,0.8,0.8,0.8,-0.018871,0.034730,-0.999219
500274.500000,5418776.500000,265.369995,0.8,0.8,0.8,-0.027280,-0.091693,-0.995414
499784.875000,5419313.500000,266.519989,0.8,0.8,0.8,-0.020312,0.081851,-0.996437
499706.718750,5418972.500000,255.910004,0.8,0.8,0.8,-0.051526,0.032084,-0.998156
500342.031250,5419068.000000,244.039993,0.8,0.8,0.8,-0.002722,0.002320,-0.999994
499705.375000,5418533.500000,252.160004,0.8,0.8,0.8,-0.026455,0.208231,0.977722
500095.468750,5418388.000000,285.540009,0.8,0.8,0.8,0.115181,0.252592,0.960693
499981.937500,5418706.000000,254.789993,0.8,0.8,0.8,-0.421177,0.566050,0.708658
500051.218750,5418353.500000,286.230011,0.8,0.8,0.8,-0.025422,0.085853,0.995983
499474.312500,5419120.500000,273.540009,0.8,0.8,0.8,-0.077003,0.115464,-0.990322
500483.875000,5418992.500000,246.419998,0.8,0.8,0.8,0.012785,-0.093360,-0.995550
499497.468750,5418351.000000,269.029999,0.8,0.8,0.8,-0.010600,0.048540,0.998765
499491.250000,5418607.000000,251.470001,0.8,0.8,0.8,0.107421,-0.740624,0.663278
500188.375000,5419184.500000,255.600006,0.8,0.8,0.8,-0.191309,-0.146534,-0.970530
499462.500000,5419117.500000,274.109985,0.8,0.8,0.8,-0.081041,0.116978,-0.989822
500030.718750,5418831.500000,244.690002,0.8,0.8,0.8,0.085992,-0.044843,-0.995286
500424.468750,5419375.000000,257.980011,0.8,0.8,0.8,0.021005,0.454823,-0.890334
500245.531250,5418837.500000,257.359985,0.8,0.8,0.8,-0.038586,-0.120695,-0.991939
499512.625000,5419312.500000,293.950012,0.8,0.8,0.8,-0.150309,0.010693,-0.988581
499574.125000,5418420.000000,258.859985,0.8,0.8,0.8,-0.025828,-0.009180,0.999624
500260.875000,5418833.000000,257.839996,0.8,0.8,0.8,-0.011822,-0.146602,-0.989125
500367.375000,5419113.500000,243.880005,0.8,0.8,0.8,0.010889,0.003907,-0.999933
499927.906250,5419180.000000,253.600006,0.8,0.8,0.8,-0.009067,0.046473,-0.998878
500078.718750,5418952.500000,244.050003,0.8,0.8,0.8,0.012042,-0.015129,-0.999813
500169.781250,5419365.000000,266.230011,0.8,0.8,0.8,-0.025849,0.179162,-0.983480
499674.875000,5418554.500000,250.130005,0.8,0.8,0.8,-0.083326,0.196279,0.977001
499627.406250,5418711.500000,246.600006,0.8,0.8,0.8,0.068476,-0.045155,-0.996630
499737.656250,5419170.000000,261.880005,0.8,0.8,0.8,-0.033796,0.043002,-0.998503
499546.468750,5418928.500000,258.190002,0.8,0.8,0.8,-0.027019,0.044522,-0.998643
500270.000000,5419346.500000,255.169998,0.8,0.8,0.8,-0.067846,0.424062,-0.903088
499639.218750,5419311.000000,281.769989,0.8,0.8,0.8,-0.139204,0.056509,-0.988650
500032.531250,5418490.000000,279.059998,0.8,0.8,0.8,-0.028119,0.049833,0.998362
499518.656250,5418508.500000,247.899994,0.8,0.8,0.8,-0.112293,0.116200,0.986858
499691.625000,5418423.000000,266.049988,0.8,0.8,0.8,-0.253541,-0.250748,0.934260
500142.750000,5419146.000000,247.990005,0.8,0.8,0.8,-0.000845,-0.066251,-0.997803
500093.062500,5418369.000000,293.679993,0.8,0.8,0.8,-0.088036,-0.081112,0.992809
500109.468750,5419171.000000,249.190002,0.8,0.8,0.8,0.002362,0.033858,-0.999424
500221.718750,5419167.500000,246.919998,0.8,0.8,0.8,-0.052931,0.021658,-0.998363
499601.281250,5418610.500000,251.089996,0.8,0.8,0.8,0.360305,0.006479,0.932812
499761.531250,5418671.500000,244.880005,0.8,0.8,0.8,0.042631,-0.164016,-0.985536
500015.093750,5418750.000000,247.009995,0.8,0.8,0.8,0.119105,0.305970,-0.944562
500336.843750,5419153.500000,273.179993,0.8,0.8,0.8,0.444039,-0.559759,0.699642
499613.500000,5419236.000000,280.529999,0.8,0.8,0.8,0.031554,0.363999,-0.930865
499544.468750,5419200.500000,276.839996,0.8,0.8,0.8,-0.018277,0.138665,-0.990171
499731.781250,5419091.000000,259.339996,0.8,0.8,0.8,-0.044794,0.041924,-0.998116
499796.281250,5419193.000000,258.779999,0.8,0.8,0.8,-0.051839,0.038427,-0.997916
499787.875000,5418943.000000,253.339996,0.8,0.8,0.8,-0.064069,0.049055,-0.996739
499840.562500,5419006.500000,252.190002,0.8,0.8,0.8,0.005784,-0.002296,-0.999981
500103.406250,5418582.500000,278.059998,0.8,0.8,0.8,-0.023456,0.027150,0.999356
499986.031250,5418922.000000,288.679993,0.8,0.8,0.8,-0.040919,-0.089961,-0.995104
500361.406250,5419294.500000,249.630005,0.8,0.8,0.8,-0.000225,0.073326,-0.997308
500414.656250,5419076.500000,243.990005,0.8,0.8,0.8,0.028295,0.053606,-0.998161
500046.625000,5419309.000000,271.869995,0.8,0.8,0.8,-0.015155,-0.897394,-0.440970
499727.843750,5418376.500000,263.540009,0.8,0.8,0.8,0.044191,0.038815,0.998269
499905.906250,5418805.000000,244.789993,0.8,0.8,0.8,-0.044394,-0.070151,-0.996548
500406.968750,5419429.500000,277.070007,0.8,0.8,0.8,0.104776,0.602771,-0.791005
499549.187500,5419195.500000,280.170013,0.8,0.8,0.8,0.004425,0.075633,-0.997126
499521.625000,5419417.500000,308.059998,0.8,0.8,0.8,-0.014646,0.188938,-0.981880
499602.437500,5419112.000000,265.579987,0.8,0.8,0.8,-0.042443,0.046131,-0.998033
499526.562500,5418664.500000,245.289993,0.8,0.8,0.8,0.057126,-0.125659,-0.990427
499968.750000,5418684.500000,253.550003,0.8,0.8,0.8,-0.321470,0.280418,0.904446
499578.031250,5419155.000000,269.700012,0.8,0.8,0.8,-0.065807,0.075622,-0.994963
500310.968750,5419012.500000,244.220001,0.8,0.8,0.8,-0.005074,-0.002132,-0.999985
500059.343750,5418821.000000,243.000000,0.8,0.8,0.8,-0.527568,0.614967,-0.586078
500305.656250,5419350.000000,263.799988,0.8,0.8,0.8,-0.079557,0.742236,-0.665400
499836.625000,5418527.000000,274.829987,0.8,0.8,0.8,0.097448,0.061352,0.993348
500245.000000,5419085.000000,263.160004,0.8,0.8,0.8,-0.344695,0.297044,-0.890478
499744.718750,5418782.500000,247.229996,0.8,0.8,0.8,0.028788,0.032542,-0.999056
499935.593750,5419083.000000,250.630005,0.8,0.8,0.8,-0.018392,0.000909,-0.999830
499461.875000,5418925.000000,260.450012,0.8,0.8,0.8,-0.044415,0.049718,-0.997775
500372.687500,5419280.500000,248.690002,0.8,0.8,0.8,-0.006240,0.064758,-0.997882
500392.000000,5419063.000000,243.949997,0.8,0.8,0.8,-0.000846,-0.001011,-0.999999
499852.468750,5418905.500000,247.729996,0.8,0.8,0.8,-0.048099,0.053082,-0.997431
499930.531250,5418652.000000,262.839996,0.8,0.8,0.8,-0.274939,0.280083,0.919762
499521.343750,5419412.000000,308.869995,0.8,0.8,0.8,-0.039585,0.143502,-0.988858
499892.250000,5419290.000000,263.459991,0.8,0.8,0.8,-0.016581,0.094532,-0.995384
499581.375000,5418456.000000,263.119995,0.8,0.8,0.8,0.060054,-0.223071,0.972951
500016.937500,5419009.000000,246.289993,0.8,0.8,0.8,-0.048406,0.047823,-0.997682
500419.218750,5419027.500000,244.100006,0.8,0.8,0.8,-0.002255,-0.006874,-0.999974
499750.343750,5419379.000000,273.089996,0.8,0.8,0.8,-0.058581,0.096148,-0.993642
499881.343750,5419180.000000,254.520004,0.8,0.8,0.8,-0.038448,0.033929,-0.998684
499657.062500,5418520.500000,251.529999,0.8,0.8,0.8,-0.205884,0.350900,0.913499
500386.375000,5418906.500000,255.139999,0.8,0.8,0.8,0.015503,-0.035187,-0.999260
499567.343750,5418822.500000,252.449997,0.8,0.8,0.8,-0.045468,0.070958,-0.996442
499748.406250,5418975.500000,254.000000,0.8,0.8,0.8,-0.038532,0.030864,-0.998781
499500.437500,5418427.000000,250.800003,0.8,0.8,0.8,-0.068736,0.048219,0.996469
499885.343750,5419089.500000,252.529999,0.8,0.8,0.8,-0.035743,0.012547,-0.999282
499675.437500,5418519.500000,254.070007,0.8,0.8,0.8,-0.115646,0.273361,0.954934
500097.093750,5418677.000000,272.459991,0.8,0.8,0.8,-0.007867,0.057136,0.998335
499540.875000,5419044.000000,263.730011,0.8,0.8,0.8,-0.041278,0.063517,-0.997127
499752.875000,5418414.500000,263.540009,0.8,0.8,0.8,0.012650,0.002510,0.999917
499836.781250,5418662.500000,246.529999,0.8,0.8,0.8,-0.040081,-0.020116,0.998994
499913.812500,5418802.500000,246.440002,0.8,0.8,0.8,-0.149824,-0.110764,-0.982489
499854.062500,5419227.000000,258.480011,0.8,0.8,0.8,-0.037277,0.068275,-0.996970
499868.531250,5418609.000000,249.360001,0.8,0.8,0.8,-0.021456,-0.016316,0.999637
500210.750000,5418419.500000,289.269989,0.8,0.8,0.8,-0.021932,0.071802,0.997178
500406.468750,5418909.500000,255.470001,0.8,0.8,0.8,0.031707,0.000961,-0.999497
499500.687500,5418356.000000,268.739990,0.8,0.8,0.8,0.011855,0.067823,0.997627
499787.656250,5418355.000000,263.279999,0.8,0.8,0.8,0.003333,-0.010392,0.999940
500073.312500,5419007.000000,244.289993,0.8,0.8,0.8,-0.021740,0.024869,-0.999454
500070.625000,5418451.000000,287.700012,0.8,0.8,0.8,0.135853,0.355851,0.924616
500108.906250,5418893.500000,254.389999,0.8,0.8,0.8,-0.249873,0.879463,-0.405102
499706.718750,5419028.000000,257.540009,0.8,0.8,0.8,-0.044406,0.036164,-0.998359
500129.937500,5418661.500000,273.799988,0.8,0.8,0.8,-0.008018,0.096749,0.995277
499975.468750,5418650.000000,271.279999,0.8,0.8,0.8,-0.315247,0.475222,0.821452
500501.656250,5419004.000000,245.449997,0.8,0.8,0.8,0.010530,-0.091627,-0.995738
500095.093750,5418619.500000,276.140015,0.8,0.8,0.8,-0.053874,0.066412,0.996337
500501.531250,5419219.000000,262.799988,0.8,0.8,0.8,-0.506718,0.858069,-0.083390
499584.218750,5418667.500000,253.559998,0.8,0.8,0.8,-0.104054,-0.069568,-0.992136
499890.312500,5418703.000000,246.919998,0.8,0.8,0.8,-0.045841,0.007688,0.998919
500181.875000,5418583.500000,278.429993,0.8,0.8,0.8,0.000843,0.047333,0.998879
