x,y,z,r,g,b,nx,ny,nz
496921,5.42146e+006,312.93,0.8,0.8,0.8,-0.863302,-0.177671,-0.472379
496495,5.42116e+006,292.2,0.8,0.8,0.8,-0.0389796,0.0773741,0.99624
496834,5.4216e+006,285.67,0.8,0.8,0.8,0.0285027,-0.171419,-0.984786
496537,5.42113e+006,297.83,0.8,0.8,0.8,0.100175,0.0102486,0.994917
496645,5.42119e+006,292.5,0.8,0.8,0.8,0.186392,-0.0469319,0.981354
496885,5.42092e+006,313.41,0.8,0.8,0.8,0.735997,-0.309036,0.602333
497074,5.42093e+006,307.11,0.8,0.8,0.8,-0.0456823,0.431369,0.901018
496467,5.42177e+006,297.91,0.8,0.8,0.8,-0.0866859,0.0620081,-0.994304
496995,5.4211e+006,299.94,0.8,0.8,0.8,-0.00713817,0.0378748,0.999257
497080,5.42088e+006,308.16,0.8,0.8,0.8,0.196501,0.187286,0.962451
496749,5.42136e+006,287.1,0.8,0.8,0.8,0.535076,0.159736,-0.829565
496425,5.42144e+006,286.75,0.8,0.8,0.8,-0.032388,0.0836005,-0.995973
497894,5.42117e+006,322.27,0.8,0.8,0.8,-0.0199691,0.0876578,0.99595
496356,5.42141e+006,286.16,0.8,0.8,0.8,-0.0355439,0.0781558,-0.996307
497441,5.42128e+006,302,0.8,0.8,0.8,0.155005,0.38199,0.911075
496352,5.42167e+006,321.47,0.8,0.8,0.8,-0.329833,-0.921939,0.203072
497159,5.42142e+006,307.31,0.8,0.8,0.8,-0.241471,0.326692,-0.913764
497479,5.42172e+006,304.3,0.8,0.8,0.8,0.0323023,-0.0761083,-0.996576
497044,5.42095e+006,303.04,0.8,0.8,0.8,0.495767,0.168258,0.852
496564,5.42177e+006,293.42,0.8,0.8,0.8,0.0228713,0.0939821,-0.995311
497478,5.42159e+006,309.73,0.8,0.8,0.8,0.0140201,-0.000657869,-0.999902
497639,5.42147e+006,305.49,0.8,0.8,0.8,0.00435359,0.0875888,-0.996147
496625,5.42077e+006,315.49,0.8,0.8,0.8,-0.0459981,0.139298,-0.989182
496597,5.42096e+006,303.31,0.8,0.8,0.8,0.0271128,-0.108429,0.993734
497558,5.42156e+006,310.44,0.8,0.8,0.8,0.00616192,0.0212155,-0.999756
497336,5.4214e+006,295.93,0.8,0.8,0.8,0.0405884,0.152391,-0.987487
496754,5.42137e+006,292.09,0.8,0.8,0.8,-0.025551,0.27548,-0.960967
496421,5.42089e+006,306.36,0.8,0.8,0.8,-0.0830459,-0.0626398,0.994575
496559,5.42107e+006,900.21,0.8,0.8,0.8,0.42795,-0.0194456,-0.903593
496424,5.42127e+006,268.99,0.8,0.8,0.8,-0.073517,0.294878,0.952703
497380,5.42123e+006,293.57,0.8,0.8,0.8,0.247844,0.188686,0.950248
497176,5.4212e+006,291.31,0.8,0.8,0.8,-0.0389228,0.0491534,0.998033
497907,5.42152e+006,304.66,0.8,0.8,0.8,-0.0204665,0.0739262,-0.997054
496485,5.42147e+006,288.55,0.8,0.8,0.8,-0.436913,-0.0451279,-0.898371
496718,5.42087e+006,306.23,0.8,0.8,0.8,0.0018899,0.028022,0.999606
497109,5.42141e+006,292.8,0.8,0.8,0.8,-0.0748525,0.0281885,-0.996796
497340,5.42173e+006,299.65,0.8,0.8,0.8,0.0107276,-0.0613479,-0.998059
496465,5.42155e+006,877.59,0.8,0.8,0.8,-0.0427541,-0.362174,-0.93113
497484,5.42119e+006,302.68,0.8,0.8,0.8,0.0547822,0.0431242,0.997567
496575,5.42087e+006,311.65,0.8,0.8,0.8,0.409967,0.24211,0.87938
497556,5.42076e+006,324.33,0.8,0.8,0.8,0.0327211,-0.0659614,-0.997286
496566,5.42097e+006,303.4,0.8,0.8,0.8,-0.0668481,-0.10968,0.991717
496365,5.42126e+006,265.54,0.8,0.8,0.8,0.184804,-0.037094,0.982075
497801,5.42156e+006,310.82,0.8,0.8,0.8,-0.0355295,0.0445968,-0.998373
497850,5.42106e+006,328.45,0.8,0.8,0.8,-0.0286206,0.0367449,0.998915
496611,5.42088e+006,304.84,0.8,0.8,0.8,0.203181,0.36643,0.907991
497462,5.42179e+006,298.74,0.8,0.8,0.8,0.00840703,-0.0477207,-0.998825
496616,5.42101e+006,302.88,0.8,0.8,0.8,-0.0648596,-0.280207,0.957746
497477,5.42169e+006,306.2,0.8,0.8,0.8,0.022776,0.00539534,-0.999726
497248,5.42087e+006,313.4,0.8,0.8,0.8,-0.340329,-0.454331,0.823262
497496,5.4213e+006,294.72,0.8,0.8,0.8,-0.0448486,0.472892,0.879978
497117,5.42088e+006,309.88,0.8,0.8,0.8,-0.0646399,-0.131861,0.989158
496654,5.42154e+006,281.23,0.8,0.8,0.8,-0.0105483,-0.303462,-0.952785
496843,5.42145e+006,295.08,0.8,0.8,0.8,-0.82567,0.398865,-0.398969
496652,5.42146e+006,273.6,0.8,0.8,0.8,0.0377877,0.016987,-0.999141
497893,5.42116e+006,323.37,0.8,0.8,0.8,-0.0150175,0.0840537,0.996348
496839,5.42094e+006,304.42,0.8,0.8,0.8,0.144986,-0.0789065,0.986282
496456,5.42102e+006,300.73,0.8,0.8,0.8,-0.0714294,0.0032959,0.99744
496920,5.42151e+006,292.93,0.8,0.8,0.8,-0.0890926,-0.136613,-0.98661
496426,5.42124e+006,291.69,0.8,0.8,0.8,-0.176116,-0.323216,0.929793
496587,5.42142e+006,276.63,0.8,0.8,0.8,-0.38598,0.35568,-0.851182
497286,5.42077e+006,313.15,0.8,0.8,0.8,0.6509,0.00948148,-0.759105
496615,5.42092e+006,315.44,0.8,0.8,0.8,-0.164821,0.267477,0.949363
496727,5.42139e+006,286.62,0.8,0.8,0.8,0.290357,0.217718,-0.931822
496549,5.42176e+006,292.71,0.8,0.8,0.8,0.0224488,0.0867499,-0.995977
497710,5.42128e+006,306.68,0.8,0.8,0.8,-0.29294,0.118608,0.948746
497532,5.42075e+006,324.24,0.8,0.8,0.8,0.0335874,-0.0597686,-0.997647
497522,5.42102e+006,318.65,0.8,0.8,0.8,-0.0799769,0.0226764,0.996539
496893,5.42112e+006,306.09,0.8,0.8,0.8,0.003622,-0.030178,0.999538
497858,5.42171e+006,311.08,0.8,0.8,0.8,0.00915801,-0.0231732,-0.99969
496919,5.42108e+006,301.85,0.8,0.8,0.8,0.00248395,0.0384415,0.999258
497516,5.42178e+006,308.06,0.8,0.8,0.8,0.533931,-0.049147,-0.844099
496498,5.42122e+006,286.7,0.8,0.8,0.8,0.215698,-0.242661,0.945828
496929,5.42144e+006,293.06,0.8,0.8,0.8,0.507485,-0.294192,-0.809883
497661,5.42109e+006,323.28,0.8,0.8,0.8,-0.0269278,0.052557,0.998255
496689,5.42091e+006,303.79,0.8,0.8,0.8,0.361666,0.205997,0.909265
497432,5.4212e+006,304.46,0.8,0.8,0.8,0.000623931,-0.0254507,0.999676
497844,5.42151e+006,305.37,0.8,0.8,0.8,-0.0251975,0.0689195,-0.997304
496411,5.42105e+006,892.56,0.8,0.8,0.8,-0.280061,0.0438346,-0.958981
496868,5.42124e+006,289.7,0.8,0.8,0.8,0.0564936,0.0747036,0.995604
496538,5.42087e+006,319.22,0.8,0.8,0.8,0.105276,-0.0755998,0.991565
497554,5.42174e+006,304.73,0.8,0.8,0.8,0.030156,-0.0716181,-0.996976
497488,5.42121e+006,301.36,0.8,0.8,0.8,0.0247029,0.0514243,0.998371
497406,5.42179e+006,297.65,0.8,0.8,0.8,0.0167502,-0.0443638,-0.998875
496971,5.42137e+006,289.82,0.8,0.8,0.8,0.0503016,-0.018539,-0.998562
496490,5.42159e+006,293.51,0.8,0.8,0.8,-0.0298124,0.0257818,-0.999223
497921,5.42123e+006,318.18,0.8,0.8,0.8,-0.0117734,0.0617072,0.998025
496735,5.4211e+006,902.35,0.8,0.8,0.8,-0.206464,-0.267065,-0.941302
497067,5.42152e+006,297.81,0.8,0.8,0.8,-0.155371,0.105317,-0.982226
497177,5.42165e+006,307.02,0.8,0.8,0.8,0.0663353,0.0410399,-0.996953
496737,5.4209e+006,309.95,0.8,0.8,0.8,-0.611399,0.208473,0.763368
497110,5.42105e+006,296.76,0.8,0.8,0.8,0.0992089,0.0320599,0.99455
496765,5.42154e+006,279.32,0.8,0.8,0.8,0.0957607,0.132695,-0.98652
496991,5.42156e+006,297.87,0.8,0.8,0.8,0.0802248,0.12591,-0.988793
496608,5.42129e+006,290.23,0.8,0.8,0.8,0.125535,0.441889,0.888243
496963,5.42094e+006,303.54,0.8,0.8,0.8,-0.00295093,0.0139943,0.999898
497070,5.42112e+006,295.82,0.8,0.8,0.8,0.0912045,-0.0442544,0.994848
496949,5.42147e+006,292.36,0.8,0.8,0.8,0.0627353,0.184728,-0.980785
496909,5.42147e+006,308.42,0.8,0.8,0.8,0.722042,0.0728996,-0.687998
497174,5.42099e+006,298.94,0.8,0.8,0.8,-0.077109,0.112628,0.990641
496766,5.42174e+006,290.27,0.8,0.8,0.8,0.0446162,0.0603545,-0.997179
497203,5.42091e+006,303.98,0.8,0.8,0.8,-0.0212127,0.0488886,0.998579
497913,5.42177e+006,309.8,0.8,0.8,0.8,0.0249206,-0.0668026,-0.997455
497192,5.42126e+006,288.83,0.8,0.8,0.8,-0.0398651,0.0604977,0.997372
497490,5.42106e+006,317.24,0.8,0.8,0.8,-0.0489292,0.0285722,0.998393
497643,5.4216e+006,311.63,0.8,0.8,0.8,0.00701449,-0.00316308,-0.99997
496429,5.4211e+006,293.83,0.8,0.8,0.8,-0.180312,0.258223,0.949109
497680,5.42113e+006,320.36,0.8,0.8,0.8,-0.0270788,0.0764785,0.996704
496450,5.42137e+006,276.78,0.8,0.8,0.8,-0.115191,0.0776453,-0.990304
496483,5.4212e+006,287.6,0.8,0.8,0.8,-0.0327741,0.0815376,0.996131
497446,5.42114e+006,311.07,0.8,0.8,0.8,0.156899,0.380675,0.911301
496838,5.421e+006,309.46,0.8,0.8,0.8,0.0144967,-0.203597,0.978948
496902,5.42101e+006,307.65,0.8,0.8,0.8,-0.117484,0.371578,0.920938
497392,5.42106e+006,312.09,0.8,0.8,0.8,-0.0166582,-0.33811,0.940959
497907,5.42118e+006,321.54,0.8,0.8,0.8,-0.0172628,0.0704966,0.997363
496722,5.42106e+006,314.07,0.8,0.8,0.8,0.134466,-0.445385,0.885184
497380,5.4212e+006,301.84,0.8,0.8,0.8,-0.0319794,0.0800106,0.996281
497131,5.42145e+006,297.95,0.8,0.8,0.8,-0.0206793,-0.0430576,-0.998859
497389,5.42112e+006,308.08,0.8,0.8,0.8,-0.0580998,0.0609099,0.996451
496601,5.42104e+006,302.18,0.8,0.8,0.8,0.0854026,0.466747,0.880258
497062,5.42087e+006,310.13,0.8,0.8,0.8,-0.374681,0.236239,0.896552
496882,5.42102e+006,314.81,0.8,0.8,0.8,0.540427,0.147986,0.828275
496532,5.42104e+006,897.31,0.8,0.8,0.8,0.179078,0.95226,-0.247248
497741,5.42158e+006,311.8,0.8,0.8,0.8,-0.00522951,0.0138382,-0.999891
497343,5.4218e+006,296.36,0.8,0.8,0.8,0.11295,-0.161425,-0.9804
496572,5.42177e+006,294.21,0.8,0.8,0.8,0.0162688,0.0946842,-0.995374
496780,5.42172e+006,290.18,0.8,0.8,0.8,0.0193732,0.0393968,-0.999036
496843,5.42157e+006,280.92,0.8,0.8,0.8,-0.139069,0.138611,-0.980534
497364,5.42137e+006,293.09,0.8,0.8,0.8,0.0446243,0.10484,-0.993487
496384,5.42112e+006,293.55,0.8,0.8,0.8,-0.0208769,0.110579,0.993648
496960,5.42153e+006,293.81,0.8,0.8,0.8,0.00546809,0.0155727,-0.999864
496817,5.42085e+006,307.53,0.8,0.8,0.8,-0.14082,0.374578,0.916439
497352,5.42103e+006,310.63,0.8,0.8,0.8,-0.124927,-0.175112,0.976591
496862,5.42173e+006,296.66,0.8,0.8,0.8,-0.0328093,0.0745785,-0.996675
496479,5.42168e+006,311.05,0.8,0.8,0.8,-0.0802256,-0.984323,0.157076
497132,5.42175e+006,302.33,0.8,0.8,0.8,0.538736,-0.0196809,-0.842245
497421,5.42121e+006,293.71,0.8,0.8,0.8,-0.472272,0.11156,0.874364
497873,5.42091e+006,331.06,0.8,0.8,0.8,-0.0212921,-0.0132217,0.999686
496382,5.42109e+006,908.21,0.8,0.8,0.8,-0.0986105,0.635972,-0.765386
497934,5.42095e+006,332.63,0.8,0.8,0.8,-0.00827189,0.0287156,0.999553
496792,5.42113e+006,298.44,0.8,0.8,0.8,0.134112,0.150456,0.979478
496651,5.421e+006,305.27,0.8,0.8,0.8,0.164418,-0.0850171,0.98272
497915,5.42163e+006,311.25,0.8,0.8,0.8,-0.0229791,0.0202821,-0.99953
496902,5.42089e+006,304.25,0.8,0.8,0.8,-0.0852435,0.0180428,0.996197
496682,5.42151e+006,277.28,0.8,0.8,0.8,-0.0134281,0.474162,-0.880335
496448,5.42163e+006,295.9,0.8,0.8,0.8,-0.0460174,0.00271514,-0.998937
496746,5.42075e+006,313.85,0.8,0.8,0.8,0.225306,-0.845432,-0.484233
497600,5.42139e+006,297.05,0.8,0.8,0.8,2.83531e-005,0.0892083,-0.996013
497300,5.4215e+006,305.74,0.8,0.8,0.8,0.0947901,-0.0214092,-0.995267
497834,5.42103e+006,348.94,0.8,0.8,0.8,0.056694,-0.093013,-0.994049
497546,5.42166e+006,308.96,0.8,0.8,0.8,0.0333834,-0.0617159,-0.997535
496526,5.42139e+006,275.1,0.8,0.8,0.8,-0.0756225,-0.0606496,-0.99529
497277,5.42092e+006,309.88,0.8,0.8,0.8,-0.0498067,-0.370418,0.927529
496594,5.42078e+006,313.53,0.8,0.8,0.8,0.192089,-0.334829,-0.922492
497771,5.42161e+006,311.98,0.8,0.8,0.8,0.00445529,-0.00287695,-0.999986
497742,5.42114e+006,321.01,0.8,0.8,0.8,-0.0239624,0.0735762,0.997002
497201,5.42086e+006,311.36,0.8,0.8,0.8,0.158547,0.292557,0.943013
497459,5.42155e+006,309.12,0.8,0.8,0.8,0.0183633,0.0116041,-0.999764
497503,5.42181e+006,298.45,0.8,0.8,0.8,0.0584623,-0.0618258,-0.996373
496649,5.4209e+006,312.84,0.8,0.8,0.8,0.805672,-0.113096,0.581465
497674,5.4215e+006,308.94,0.8,0.8,0.8,0.0373168,0.0753465,-0.996459
497746,5.42156e+006,311.08,0.8,0.8,0.8,-0.0133885,0.0427295,-0.998997
497051,5.42176e+006,284.53,0.8,0.8,0.8,0.156556,-0.0459613,-0.986599
497597,5.42094e+006,322.61,0.8,0.8,0.8,-0.0472987,-0.00538367,0.998866
497950,5.42165e+006,311.18,0.8,0.8,0.8,-0.00762704,0.016968,-0.999827
497264,5.42171e+006,307.2,0.8,0.8,0.8,-0.1776,0.272176,-0.945716
496393,5.42115e+006,291.03,0.8,0.8,0.8,-0.0176168,0.117103,0.992964
497939,5.42174e+006,310.74,0.8,0.8,0.8,0.00271546,-0.0169894,-0.999852
497243,5.42104e+006,302.06,0.8,0.8,0.8,-0.155511,0.0498421,0.986576
497397,5.42168e+006,304.37,0.8,0.8,0.8,0.077055,0.128643,-0.988693
496734,5.42139e+006,291.94,0.8,0.8,0.8,-0.216118,0.106237,-0.97057
496548,5.42097e+006,301.96,0.8,0.8,0.8,0.0570874,0.10306,0.993036
497461,5.42149e+006,307.53,0.8,0.8,0.8,0.00484842,0.0376796,-0.999278
497517,5.42078e+006,322.45,0.8,0.8,0.8,0.0387813,-0.0316162,-0.998747
496825,5.42177e+006,297.29,0.8,0.8,0.8,0.0355644,0.0699587,-0.996916
496836,5.42098e+006,311.41,0.8,0.8,0.8,-0.0344537,0.00758695,0.999378
497265,5.42077e+006,324.97,0.8,0.8,0.8,-0.0409146,0.479164,-0.876771
497662,5.4216e+006,311.74,0.8,0.8,0.8,0.0116402,4.79873e-005,-0.999932
496695,5.42141e+006,294.3,0.8,0.8,0.8,0.0413232,-0.999138,-0.00385037
497281,5.42157e+006,305.96,0.8,0.8,0.8,0.113787,0.112951,-0.987064
497783,5.42107e+006,326.76,0.8,0.8,0.8,-0.0294809,0.0435448,0.998616
496729,5.42093e+006,304.87,0.8,0.8,0.8,-0.00715535,0.0153471,0.999857
497614,5.42164e+006,310.71,0.8,0.8,0.8,0.00679986,-0.0256113,-0.999649
497671,5.42077e+006,326.92,0.8,0.8,0.8,0.0489389,-0.0481199,-0.997642
496435,5.42099e+006,301.34,0.8,0.8,0.8,0.0120382,-0.00041836,0.999927
497738,5.4212e+006,312.49,0.8,0.8,0.8,-0.138975,0.274161,0.951589
496398,5.42158e+006,885.7,0.8,0.8,0.8,0.0496839,0.20019,-0.978496
496859,5.42158e+006,281.52,0.8,0.8,0.8,0.17482,-0.226677,-0.958152
497877,5.421e+006,330.89,0.8,0.8,0.8,-0.0154261,0.020154,0.999678
497074,5.42141e+006,292.66,0.8,0.8,0.8,-0.0307268,-0.160033,-0.986633
497307,5.42158e+006,306.81,0.8,0.8,0.8,-0.00819273,0.000895716,-0.999966
497011,5.42119e+006,298.33,0.8,0.8,0.8,-0.0168126,-0.00614779,0.99984
496658,5.42115e+006,305.78,0.8,0.8,0.8,-0.444676,0.529696,0.722278
496893,5.42101e+006,304.39,0.8,0.8,0.8,-0.0365334,0.115669,0.992616
497324,5.42161e+006,306.84,0.8,0.8,0.8,0.0290005,-0.0790218,-0.996451
496720,5.4215e+006,285.57,0.8,0.8,0.8,0.656611,-0.66062,-0.363926
496626,5.42143e+006,272.49,0.8,0.8,0.8,0.00728136,-0.224893,-0.974356
496753,5.42146e+006,310.32,0.8,0.8,0.8,0.113878,0.309437,-0.944077
497064,5.42163e+006,298.61,0.8,0.8,0.8,-0.2501,0.751691,-0.610255
496908,5.42159e+006,293.41,0.8,0.8,0.8,0.0653216,0.00225801,-0.997862
496622,5.42093e+006,313.87,0.8,0.8,0.8,0.204022,-0.2372,0.949795
496434,5.42179e+006,301.76,0.8,0.8,0.8,-0.0573381,0.0679249,-0.996041
497305,5.42177e+006,297.01,0.8,0.8,0.8,-0.0307726,0.0019876,-0.999524
497748,5.4216e+006,311.9,0.8,0.8,0.8,-0.00257929,0.00186531,-0.999995
497265,5.42149e+006,304.27,0.8,0.8,0.8,0.0162052,0.0412104,-0.999019
497728,5.42103e+006,326.07,0.8,0.8,0.8,-0.0280937,0.0228872,0.999343
497677,5.4209e+006,325.38,0.8,0.8,0.8,0.014616,0.104296,0.994439
497451,5.42146e+006,306.15,0.8,0.8,0.8,0.0044267,0.0768879,-0.99703
497681,5.4211e+006,322.85,0.8,0.8,0.8,0.0257722,0.055858,0.998106
497449,5.42159e+006,309.01,0.8,0.8,0.8,0.0198161,-0.00732269,-0.999777
496894,5.42146e+006,318.5,0.8,0.8,0.8,-0.118135,-0.196938,-0.973273
496429,5.42106e+006,298.89,0.8,0.8,0.8,0.00933917,0.0116456,0.999889
496411,5.42109e+006,911.35,0.8,0.8,0.8,-0.0890608,0.240371,-0.966587
497282,5.42147e+006,303.27,0.8,0.8,0.8,0.0117847,0.0558873,-0.998368
496992,5.42113e+006,295.26,0.8,0.8,0.8,-0.0324354,0.279432,0.959617
497784,5.42118e+006,319.2,0.8,0.8,0.8,-0.0196481,0.0917637,0.995587
497554,5.42146e+006,305.09,0.8,0.8,0.8,-0.00481887,0.0755418,-0.997131
497011,5.42093e+006,304.02,0.8,0.8,0.8,0.0482061,0.16696,0.984785
497292,5.42109e+006,311.87,0.8,0.8,0.8,0.0638482,0.212179,0.975143
497668,5.42166e+006,310.85,0.8,0.8,0.8,0.00244575,-0.0278938,-0.999608
496626,5.42126e+006,285.4,0.8,0.8,0.8,0.00501206,0.107077,0.994238
497110,5.42157e+006,300.66,0.8,0.8,0.8,0.0526904,-0.0230987,-0.998344
497213,5.42117e+006,294.4,0.8,0.8,0.8,-0.0500105,0.0494163,0.997525
496652,5.42097e+006,303.78,0.8,0.8,0.8,0.0060169,0.268011,0.963397
496365,5.42112e+006,293.35,0.8,0.8,0.8,-0.041658,0.109034,0.993165
496571,5.42168e+006,286.64,0.8,0.8,0.8,-0.0523615,0.0406963,-0.997799
497235,5.42111e+006,298.52,0.8,0.8,0.8,-0.0585039,0.0290172,0.997865
497377,5.42154e+006,308.01,0.8,0.8,0.8,0.020531,0.00917813,-0.999747
497633,5.42164e+006,310.77,0.8,0.8,0.8,0.0125684,-0.026173,-0.999578
497781,5.42166e+006,311.61,0.8,0.8,0.8,0.00766668,-0.0138741,-0.999874
497832,5.42168e+006,311.54,0.8,0.8,0.8,0.00302791,-0.0175162,-0.999842
496990,5.42177e+006,277.15,0.8,0.8,0.8,0.0917681,-0.187073,-0.97805
496419,5.4215e+006,291.24,0.8,0.8,0.8,-0.0130589,0.0635815,-0.997891
496965,5.42145e+006,291.88,0.8,0.8,0.8,-0.0810608,-0.00238243,-0.996706
496898,5.42123e+006,291.21,0.8,0.8,0.8,0.0704385,0.00860959,0.997479
497020,5.42156e+006,297.78,0.8,0.8,0.8,-0.00769033,-0.0258235,-0.999637
497095,5.42088e+006,305.49,0.8,0.8,0.8,0.00442319,0.136774,0.990592
497167,5.42144e+006,297.31,0.8,0.8,0.8,-0.00103657,0.00257182,-0.999996
496885,5.42153e+006,292.58,0.8,0.8,0.8,-0.335955,-0.09186,-0.937388
497783,5.42117e+006,320.16,0.8,0.8,0.8,-0.0237853,0.0548625,0.998211
496969,5.42178e+006,280.16,0.8,0.8,0.8,-0.283598,-0.152928,-0.946671
496805,5.42124e+006,290.4,0.8,0.8,0.8,-0.0638735,0.109327,0.991951
496614,5.42076e+006,313.63,0.8,0.8,0.8,-0.0689559,0.326491,-0.942682
497678,5.42158e+006,312.02,0.8,0.8,0.8,0.000153472,0.00624153,-0.999981
497425,5.42119e+006,318.63,0.8,0.8,0.8,-0.806464,-0.56918,-0.160155
497679,5.4217e+006,310.24,0.8,0.8,0.8,0.00125767,-0.0718104,-0.997418
497233,5.4218e+006,293.39,0.8,0.8,0.8,0.0495481,-0.0428481,-0.997852
496876,5.42121e+006,303.95,0.8,0.8,0.8,-0.307293,0.377706,0.873447
496994,5.42099e+006,303.48,0.8,0.8,0.8,-0.241167,-0.0789535,0.967267
497763,5.4215e+006,306.97,0.8,0.8,0.8,-0.0214707,0.0869155,-0.995984
497021,5.42106e+006,308.62,0.8,0.8,0.8,-0.0103915,-0.0161067,0.999816
497773,5.42115e+006,320.88,0.8,0.8,0.8,-0.0229509,0.0693645,0.997327
496472,5.42145e+006,295.34,0.8,0.8,0.8,0.483843,0.608911,-0.628589
497569,5.42106e+006,354.09,0.8,0.8,0.8,0.517225,-0.803027,-0.296017
497040,5.42083e+006,307.67,0.8,0.8,0.8,0.00356639,0.0440615,0.999022
496417,5.42172e+006,298.95,0.8,0.8,0.8,-0.0537055,0.0434908,-0.997609
497590,5.42104e+006,321.68,0.8,0.8,0.8,-0.0357998,0.0245537,0.999057
497475,5.42127e+006,302.32,0.8,0.8,0.8,0.166042,0.351225,0.92145
497156,5.42169e+006,302.28,0.8,0.8,0.8,0.697324,0.253299,-0.670507
497703,5.42114e+006,319.96,0.8,0.8,0.8,-0.0260607,0.0695317,0.997239
496927,5.42144e+006,306.38,0.8,0.8,0.8,-0.717471,-0.214212,-0.662834
496994,5.42176e+006,278.23,0.8,0.8,0.8,0.199742,-0.216386,-0.955657
496932,5.42142e+006,293.6,0.8,0.8,0.8,0.0801453,-0.107493,-0.99097
497281,5.42143e+006,299.7,0.8,0.8,0.8,-0.139377,0.178539,-0.974011
496796,5.42149e+006,290.25,0.8,0.8,0.8,0.151545,0.493492,-0.856446
496661,5.4211e+006,298.7,0.8,0.8,0.8,-0.131718,0.0161686,0.991155
497014,5.42156e+006,297.76,0.8,0.8,0.8,-0.00157941,0.02004,-0.999798
497183,5.4216e+006,303.48,0.8,0.8,0.8,0.0351224,0.0852077,-0.995744
497815,5.42125e+006,313.75,0.8,0.8,0.8,-0.0305648,0.0926136,0.995233
497226,5.42152e+006,304.04,0.8,0.8,0.8,0.0334003,0.0163305,-0.999309
497669,5.42158e+006,311.83,0.8,0.8,0.8,0.0201259,0.0108811,-0.999738
497241,5.42094e+006,312.96,0.8,0.8,0.8,-0.348735,0.0238277,0.936918
496907,5.42148e+006,303.79,0.8,0.8,0.8,-0.964596,-0.228742,-0.131273
496748,5.42126e+006,283.98,0.8,0.8,0.8,4.04709e-005,0.135745,0.990744
496683,5.4209e+006,319.81,0.8,0.8,0.8,0.201608,0.0622028,0.977489
496545,5.42094e+006,303.44,0.8,0.8,0.8,-0.354195,0.106657,0.92907
497713,5.42112e+006,321.91,0.8,0.8,0.8,-0.0276296,0.0673195,0.997349
496375,5.42106e+006,907.63,0.8,0.8,0.8,-0.354588,-0.242058,-0.903148
496586,5.42166e+006,285.03,0.8,0.8,0.8,-0.056008,0.033499,-0.997868
496913,5.4216e+006,323.27,0.8,0.8,0.8,0.218086,0.605077,-0.765716
496637,5.42077e+006,313.6,0.8,0.8,0.8,-0.0997433,0.313563,-0.944314
497341,5.42126e+006,301.64,0.8,0.8,0.8,0.20319,0.076624,0.976137
497491,5.42181e+006,297.9,0.8,0.8,0.8,0.034061,-0.0668025,-0.997185
496567,5.42094e+006,308.73,0.8,0.8,0.8,0.184949,-0.620489,0.762094
496587,5.42178e+006,295.16,0.8,0.8,0.8,0.00998667,0.0822947,-0.996558
496539,5.42114e+006,301.34,0.8,0.8,0.8,0.0767945,-0.0553372,0.99551
496646,5.4209e+006,316.11,0.8,0.8,0.8,0.206693,0.273857,0.939298
497582,5.42116e+006,308.28,0.8,0.8,0.8,0.0209756,0.0259111,0.999444
497526,5.42143e+006,303.45,0.8,0.8,0.8,-0.0247788,0.0950142,-0.995167
497580,5.42103e+006,321.47,0.8,0.8,0.8,-0.0418,0.0229433,0.998863
497286,5.42122e+006,295.5,0.8,0.8,0.8,-0.0356993,0.0675374,0.997078
497463,5.4218e+006,298.49,0.8,0.8,0.8,0.0167345,-0.049674,-0.998625
497752,5.42102e+006,354.81,0.8,0.8,0.8,0.203109,0.977846,0.0506375
496867,5.42086e+006,307.04,0.8,0.8,0.8,0.169357,0.440626,0.881571
496756,5.42171e+006,288.99,0.8,0.8,0.8,0.0479057,0.0887756,-0.994899
496355,5.42115e+006,289.17,0.8,0.8,0.8,-0.0291999,0.0918057,0.995349
497348,5.42165e+006,304.81,0.8,0.8,0.8,0.0364284,-0.0609587,-0.997475
496592,5.42155e+006,285.65,0.8,0.8,0.8,-0.124062,0.0342527,-0.991683
497515,5.42157e+006,310.3,0.8,0.8,0.8,0.0185409,0.00882705,-0.999789
497525,5.42119e+006,304.5,0.8,0.8,0.8,0.0547072,0.0783461,0.995424
496657,5.42136e+006,273.12,0.8,0.8,0.8,0.27869,0.110712,-0.953978
496923,5.42157e+006,330.32,0.8,0.8,0.8,0.573477,0.8065,0.143815
496869,5.4215e+006,298.46,0.8,0.8,0.8,0.915932,-0.00159475,-0.401329
496658,5.42165e+006,279.82,0.8,0.8,0.8,-0.0376426,0.169376,-0.984832
497233,5.42097e+006,300.94,0.8,0.8,0.8,-0.166339,0.0422951,0.985161
496534,5.42086e+006,316.1,0.8,0.8,0.8,0.0127826,-0.710597,0.703483
496531,5.42093e+006,314.25,0.8,0.8,0.8,0.370632,-0.763602,0.528718
497031,5.42126e+006,286.9,0.8,0.8,0.8,0.230191,0.161672,0.959622
497761,5.42118e+006,318.92,0.8,0.8,0.8,-0.0273615,0.0804067,0.996387
496546,5.42098e+006,303.51,0.8,0.8,0.8,0.0556396,-0.0685507,0.996095
497519,5.42174e+006,304.68,0.8,0.8,0.8,-0.0113602,-0.638103,-0.769867
497176,5.42163e+006,314.56,0.8,0.8,0.8,0.414896,-0.344953,-0.841944
496884,5.42152e+006,304.73,0.8,0.8,0.8,-0.386246,-0.661244,-0.643094
497051,5.42095e+006,302.65,0.8,0.8,0.8,0.0482909,0.0601684,0.997019
496803,5.42097e+006,303.74,0.8,0.8,0.8,0.0360563,0.0410055,0.998508
496375,5.42106e+006,299.4,0.8,0.8,0.8,-0.0864927,0.307008,0.947769
496518,5.4216e+006,292.12,0.8,0.8,0.8,-0.0496911,0.00409472,-0.998756
496818,5.42152e+006,295.6,0.8,0.8,0.8,-0.0316528,0.880056,-0.473815
496752,5.42123e+006,294.5,0.8,0.8,0.8,0.171686,-0.00532912,0.985137
496517,5.42144e+006,282.47,0.8,0.8,0.8,-0.0809362,0.0831315,-0.993246
497246,5.42139e+006,297.79,0.8,0.8,0.8,0.0852364,0.157459,-0.98384
496588,5.42117e+006,293.61,0.8,0.8,0.8,-0.0197591,0.29975,0.953813
496397,5.42124e+006,283.14,0.8,0.8,0.8,-0.265963,0.137168,0.954174
496809,5.42115e+006,296.79,0.8,0.8,0.8,0.162433,0.0547003,0.985202
497647,5.42095e+006,324.62,0.8,0.8,0.8,-0.0308028,-0.000770154,0.999525
496725,5.42102e+006,304.07,0.8,0.8,0.8,0.0191385,-0.268896,0.962979
496818,5.4216e+006,283.06,0.8,0.8,0.8,-0.0443596,-0.39143,-0.919138
496556,5.42168e+006,287.51,0.8,0.8,0.8,-0.0641425,0.0281274,-0.997544
497215,5.42092e+006,307.32,0.8,0.8,0.8,-0.178376,0.175613,0.968164
496936,5.42171e+006,305.53,0.8,0.8,0.8,0.0348645,-0.328717,-0.943785
497234,5.42128e+006,292.72,0.8,0.8,0.8,-0.34734,0.437241,0.829563
496515,5.4211e+006,888.74,0.8,0.8,0.8,-0.562119,-0.710251,0.423752
497111,5.42122e+006,288.38,0.8,0.8,0.8,-0.044671,0.0433382,0.998061
496533,5.42156e+006,290.97,0.8,0.8,0.8,-0.0642408,0.00703745,-0.99791
497061,5.4218e+006,281.84,0.8,0.8,0.8,0.045257,-0.0572168,-0.997335
497790,5.42109e+006,325.55,0.8,0.8,0.8,-0.0281255,0.0586401,0.997883
497051,5.4216e+006,304.84,0.8,0.8,0.8,-0.137346,-0.132134,-0.98167
497239,5.42096e+006,312.24,0.8,0.8,0.8,-0.162911,-0.0430628,0.985701
496609,5.42086e+006,311.67,0.8,0.8,0.8,0.0508721,0.0920033,0.994458
496694,5.42139e+006,289.09,0.8,0.8,0.8,0.238072,-0.0145557,-0.971138
497901,5.42106e+006,329.38,0.8,0.8,0.8,-0.0289279,0.0330816,0.999034
496540,5.42109e+006,899.09,0.8,0.8,0.8,0.11013,0.9628,0.246753
497044,5.42118e+006,290.94,0.8,0.8,0.8,0.548485,0.393181,0.737952
497012,5.42116e+006,300.1,0.8,0.8,0.8,0.0811722,0.0989298,0.991778
497043,5.42084e+006,307.54,0.8,0.8,0.8,0.00202438,0.048328,0.99883
497182,5.42109e+006,297.38,0.8,0.8,0.8,-0.169854,0.118728,0.978291
497374,5.42143e+006,303.07,0.8,0.8,0.8,0.00912465,0.118341,-0.992931
496450,5.42128e+006,267.47,0.8,0.8,0.8,0.00275406,0.337342,0.941378
496621,5.42148e+006,280.47,0.8,0.8,0.8,0.283395,-0.151935,-0.946891
496868,5.42176e+006,299.48,0.8,0.8,0.8,0.241676,0.14695,-0.959166
496751,5.42162e+006,284.59,0.8,0.8,0.8,0.0246162,0.0708512,-0.997183
497395,5.42077e+006,319.4,0.8,0.8,0.8,-0.251245,0.112048,-0.961416
497703,5.42087e+006,330.25,0.8,0.8,0.8,0.740468,0.111581,0.662765
496935,5.42141e+006,293.37,0.8,0.8,0.8,-0.0898092,-0.210603,-0.973438
497762,5.42156e+006,311.28,0.8,0.8,0.8,-0.00831591,0.0430592,-0.999038
496791,5.42125e+006,287.35,0.8,0.8,0.8,-0.00287902,-0.0413705,0.99914
496714,5.42138e+006,297.49,0.8,0.8,0.8,0.0281863,0.221508,-0.974751
497397,5.4216e+006,308.18,0.8,0.8,0.8,0.0103147,-0.00451942,-0.999937
497651,5.42121e+006,313.13,0.8,0.8,0.8,-0.0253032,0.0554198,0.998143
496659,5.42109e+006,299.41,0.8,0.8,0.8,-0.0638479,0.0664577,0.995744
496773,5.42078e+006,311.62,0.8,0.8,0.8,-0.0507351,0.177203,-0.982866
497669,5.42106e+006,324.46,0.8,0.8,0.8,-0.0226099,0.0283221,0.999343
497434,5.42106e+006,314.49,0.8,0.8,0.8,-0.0567634,0.0171249,0.998241
496973,5.42178e+006,279.17,0.8,0.8,0.8,-0.252844,-0.135359,-0.957992
497251,5.42115e+006,297.29,0.8,0.8,0.8,-0.0551819,0.0551633,0.996951
497756,5.42123e+006,314.19,0.8,0.8,0.8,-0.0503616,0.0844697,0.995153
496659,5.42088e+006,305.54,0.8,0.8,0.8,-0.128838,0.203425,0.970577
497289,5.42077e+006,321.89,0.8,0.8,0.8,0.59916,0.255203,-0.758866
496394,5.42177e+006,302.42,0.8,0.8,0.8,-0.0261433,0.0499294,-0.998411
496978,5.42107e+006,300.69,0.8,0.8,0.8,-0.215661,0.163531,0.962678
496357,5.4214e+006,285.04,0.8,0.8,0.8,-0.0519838,0.0813642,-0.995328
497552,5.42156e+006,310.5,0.8,0.8,0.8,0.00530722,0.0193605,-0.999798
497171,5.42174e+006,303.3,0.8,0.8,0.8,0.792384,0.212068,-0.571975
497453,5.42122e+006,302.54,0.8,0.8,0.8,0.0369713,0.143114,0.989015
497173,5.42111e+006,296.33,0.8,0.8,0.8,0.147444,0.0617651,0.98714
496835,5.42164e+006,289.24,0.8,0.8,0.8,0.082363,-0.201251,-0.976071
496500,5.42106e+006,301.5,0.8,0.8,0.8,-0.020508,0.286454,0.957875
496817,5.42158e+006,831.17,0.8,0.8,0.8,0.390213,-0.380687,0.838338
496854,5.42156e+006,284.11,0.8,0.8,0.8,-0.0454864,0.11171,-0.992699
497572,5.42151e+006,308.25,0.8,0.8,0.8,-0.00164592,0.055187,-0.998475
497127,5.42164e+006,301.01,0.8,0.8,0.8,-0.0078324,-0.0899321,-0.995917
496658,5.42116e+006,295.19,0.8,0.8,0.8,-0.247512,0.431074,0.867706
497513,5.4216e+006,310.15,0.8,0.8,0.8,0.0120242,-0.0133363,-0.999839
496965,5.42126e+006,287.4,0.8,0.8,0.8,0.00840729,0.0912433,0.995793
496370,5.42094e+006,305.06,0.8,0.8,0.8,0.289009,-0.43155,0.85454
497283,5.421e+006,304.96,0.8,0.8,0.8,-0.0459765,-0.122097,0.991453
496822,5.42142e+006,296.44,0.8,0.8,0.8,0.885245,0.242913,-0.396655
497806,5.42165e+006,311.77,0.8,0.8,0.8,-0.000953619,-0.0096222,-0.999953
496622,5.42099e+006,315.83,0.8,0.8,0.8,0.119297,-0.648344,0.751943
497409,5.42124e+006,297.33,0.8,0.8,0.8,-0.429155,-0.204137,0.87986
496904,5.42139e+006,291.98,0.8,0.8,0.8,0.427337,0.194494,-0.882924
496730,5.42076e+006,316.1,0.8,0.8,0.8,0.207196,-0.229105,-0.951094
496690,5.42121e+006,290.28,0.8,0.8,0.8,0.00226297,0.0896907,0.995967
496690,5.42126e+006,285.77,0.8,0.8,0.8,0.0073956,0.128372,0.991699
497428,5.42155e+006,308.52,0.8,0.8,0.8,0.0112408,0.00672148,-0.999914
497926,5.42077e+006,333.9,0.8,0.8,0.8,0.0158943,-0.0428174,-0.998957
496915,5.42104e+006,303.31,0.8,0.8,0.8,-0.212627,-0.00530502,0.977119
496756,5.42148e+006,301.72,0.8,0.8,0.8,-0.389534,0.249884,-0.886466
496451,5.42171e+006,296.1,0.8,0.8,0.8,-0.0682276,0.0452866,-0.996641
496881,5.42158e+006,878.85,0.8,0.8,0.8,0.222559,0.954308,0.199409
496496,5.42167e+006,291.38,0.8,0.8,0.8,-0.0749352,0.00145106,-0.997187
497235,5.42141e+006,298.08,0.8,0.8,0.8,0.0819688,0.0862003,-0.9929
497304,5.42148e+006,305.28,0.8,0.8,0.8,0.099802,0.068215,-0.992666
496931,5.42116e+006,296.46,0.8,0.8,0.8,-0.0147938,-0.045081,0.998874
497566,5.42176e+006,303.8,0.8,0.8,0.8,0.0185054,-0.0735171,-0.997122
496506,5.42125e+006,280.01,0.8,0.8,0.8,-0.0991845,0.556305,0.825038
497516,5.4216e+006,310.27,0.8,0.8,0.8,0.0137419,-0.0117854,-0.999836
497708,5.42097e+006,328.37,0.8,0.8,0.8,-0.0319821,0.00706582,0.999463
497625,5.42114e+006,317.02,0.8,0.8,0.8,-0.153921,0.0461941,0.987003
497687,5.42156e+006,311.68,0.8,0.8,0.8,-0.0188589,0.0124471,-0.999745
497061,5.42138e+006,292.08,0.8,0.8,0.8,0.0255735,-0.131652,-0.990966
497057,5.42161e+006,298.16,0.8,0.8,0.8,-0.0982534,-0.251272,-0.962917
496641,5.42077e+006,310.42,0.8,0.8,0.8,-0.227783,0.285047,-0.931055
497502,5.42092e+006,317.98,0.8,0.8,0.8,-0.0441221,-0.0259484,0.998689
497816,5.42098e+006,329.98,0.8,0.8,0.8,-0.0199885,0.00798249,0.999768
497309,5.42172e+006,303.69,0.8,0.8,0.8,0.498572,0.0173884,-0.866674
497561,5.42117e+006,302.46,0.8,0.8,0.8,0.204184,-0.0516006,0.977572
496853,5.4214e+006,292.66,0.8,0.8,0.8,0.0151226,0.373214,-0.927622
497096,5.42177e+006,289.48,0.8,0.8,0.8,0.14194,-0.0105307,-0.989819
496888,5.42092e+006,311.58,0.8,0.8,0.8,0.614881,0.355512,0.703941
496537,5.42119e+006,291.37,0.8,0.8,0.8,-0.0384815,0.101412,0.9941
497680,5.42122e+006,319.34,0.8,0.8,0.8,0.702453,0.292954,0.648643
496820,5.4215e+006,287.12,0.8,0.8,0.8,-0.677891,0.119481,-0.725388
496530,5.42091e+006,303.65,0.8,0.8,0.8,-0.0102285,0.0107687,0.99989
496982,5.42117e+006,293.41,0.8,0.8,0.8,0.00148116,0.000952825,0.999998
497691,5.42159e+006,311.96,0.8,0.8,0.8,0.00751118,-0.00119744,-0.999971
496400,5.4217e+006,299.23,0.8,0.8,0.8,-0.0622981,0.0313065,-0.997566
496924,5.42156e+006,297.25,0.8,0.8,0.8,0.299751,0.0824888,-0.950445
497853,5.42124e+006,315.93,0.8,0.8,0.8,-0.0411014,0.112989,0.992746
497508,5.42107e+006,318.29,0.8,0.8,0.8,-0.138522,0.059875,0.988548
497168,5.42156e+006,302.72,0.8,0.8,0.8,0.0338605,0.0118693,-0.999356
496551,5.42116e+006,291.54,0.8,0.8,0.8,-0.132372,0.354919,0.925478
497484,5.42125e+006,304.78,0.8,0.8,0.8,0.0830642,0.203165,0.975615
496363,5.42104e+006,301.8,0.8,0.8,0.8,0.0542129,-0.498878,0.864975
496410,5.42157e+006,295.85,0.8,0.8,0.8,-0.026822,0.0428205,-0.998723
497743,5.42154e+006,310.21,0.8,0.8,0.8,-0.0135127,0.0541143,-0.998443
497497,5.42097e+006,318.6,0.8,0.8,0.8,-0.0566901,0.020041,0.998191
497136,5.42103e+006,305.17,0.8,0.8,0.8,0.21743,-0.443807,0.869344
497879,5.42138e+006,306.29,0.8,0.8,0.8,0.172026,-0.170027,-0.970308
496947,5.42128e+006,292.08,0.8,0.8,0.8,0.493182,-0.710063,0.502576
497607,5.42088e+006,322.09,0.8,0.8,0.8,-0.0456754,-0.0243605,0.998659
496779,5.4216e+006,280.75,0.8,0.8,0.8,0.211044,-0.0429534,-0.976532
497751,5.42099e+006,327.35,0.8,0.8,0.8,-0.00791232,-0.0114168,0.999904
497813,5.42086e+006,328.84,0.8,0.8,0.8,0.00817898,-0.0188562,0.999789
497165,5.42146e+006,303.35,0.8,0.8,0.8,0.00175643,0.0237634,-0.999716
496911,5.4214e+006,299.02,0.8,0.8,0.8,-0.0694725,0.505383,-0.860094
496587,5.42141e+006,271.36,0.8,0.8,0.8,-0.170635,0.0277649,-0.984943
497044,5.42162e+006,298.24,0.8,0.8,0.8,-0.214587,-0.298801,-0.929876
497041,5.42169e+006,293.23,0.8,0.8,0.8,0.150471,-0.31623,-0.936673
496537,5.42095e+006,303.44,0.8,0.8,0.8,0.268985,-0.00748056,0.963115
497771,5.42098e+006,327.53,0.8,0.8,0.8,-0.00633354,0.001887,0.999978
496562,5.42119e+006,292.38,0.8,0.8,0.8,-0.0307968,0.0676733,0.997232
497908,5.42094e+006,332.27,0.8,0.8,0.8,-0.0277266,-0.0261576,0.999273
497327,5.42128e+006,308.95,0.8,0.8,0.8,-0.842081,0.427808,-0.328451
497386,5.42129e+006,304.7,0.8,0.8,0.8,0.0273571,-0.214405,0.976362
496402,5.42108e+006,303.53,0.8,0.8,0.8,0.428956,-0.475915,0.76779
496684,5.42164e+006,294.43,0.8,0.8,0.8,0.541686,-0.516447,-0.663219
497702,5.42076e+006,328.45,0.8,0.8,0.8,0.0407261,-0.0699968,-0.996716
497439,5.42156e+006,308.75,0.8,0.8,0.8,0.0204259,0.00859333,-0.999754
497758,5.42168e+006,310.8,0.8,0.8,0.8,0.011562,-0.0308573,-0.999457
497471,5.42077e+006,321.51,0.8,0.8,0.8,-0.134157,-0.00071385,-0.99096
497651,5.42117e+006,315.5,0.8,0.8,0.8,0.0137942,0.0345202,0.999309
496548,5.42111e+006,297.88,0.8,0.8,0.8,0.0302836,-0.225438,0.973787
497002,5.42172e+006,282.88,0.8,0.8,0.8,0.17866,-0.067311,-0.981606
497446,5.42111e+006,317.42,0.8,0.8,0.8,0.0915573,-0.0061989,0.995781
496864,5.42157e+006,284.38,0.8,0.8,0.8,0.0568838,-0.110831,-0.99221
496749,5.42151e+006,277.99,0.8,0.8,0.8,0.280749,-0.1787,-0.942999
497145,5.42155e+006,301.86,0.8,0.8,0.8,0.0304542,0.0157278,-0.999412
497912,5.4217e+006,311.36,0.8,0.8,0.8,-0.00639669,-0.0199577,-0.99978
496675,5.42112e+006,298.55,0.8,0.8,0.8,-0.00013207,0.088828,0.996047
496935,5.42125e+006,291.6,0.8,0.8,0.8,0.141979,0.0248836,0.989557
497796,5.42137e+006,299.01,0.8,0.8,0.8,0.013996,0.00390981,-0.999894
496766,5.42162e+006,282.63,0.8,0.8,0.8,-0.0926496,0.23752,-0.966954
497252,5.42181e+006,293.97,0.8,0.8,0.8,0.0822144,0.0714715,-0.994049
496687,5.42159e+006,278.69,0.8,0.8,0.8,0.0679628,0.0401077,-0.996881
496885,5.42101e+006,307.02,0.8,0.8,0.8,0.710939,-0.0136548,0.703121
496755,5.42115e+006,296.9,0.8,0.8,0.8,-0.0264002,0.125089,0.991794
497048,5.42103e+006,308.88,0.8,0.8,0.8,0.00657359,0.000952572,0.999978
497113,5.42172e+006,292.91,0.8,0.8,0.8,0.309761,-0.58809,-0.747127
497868,5.42177e+006,309.46,0.8,0.8,0.8,-3.50928e-005,-0.0730712,-0.997327
497055,5.42105e+006,300.01,0.8,0.8,0.8,0.335121,0.460705,0.821854
497023,5.42173e+006,286.59,0.8,0.8,0.8,0.234924,-0.218487,-0.94714
497268,5.42118e+006,296.96,0.8,0.8,0.8,-0.0478392,0.0404358,0.998036
497090,5.42144e+006,321.34,0.8,0.8,0.8,-0.0226095,0.541312,0.840518
496806,5.42142e+006,290.45,0.8,0.8,0.8,-0.506861,0.060194,-0.859923
497056,5.42149e+006,293.89,0.8,0.8,0.8,0.0462493,-0.0237584,-0.998647
497707,5.42112e+006,321.72,0.8,0.8,0.8,-0.0281366,0.062807,0.997629
496445,5.42105e+006,299.63,0.8,0.8,0.8,-0.00332412,0.0317562,0.99949
496613,5.42115e+006,295.42,0.8,0.8,0.8,-0.111308,0.188096,0.975823
497405,5.42108e+006,312.12,0.8,0.8,0.8,-0.0500402,0.0742789,0.995981
496717,5.42123e+006,290.08,0.8,0.8,0.8,0.027057,0.0945096,0.995156
496409,5.42164e+006,297.56,0.8,0.8,0.8,-0.0449703,0.0192859,-0.998802
496835,5.42157e+006,858.33,0.8,0.8,0.8,-0.0814674,-0.43493,-0.896771
497257,5.42173e+006,301.22,0.8,0.8,0.8,0.181549,0.701917,-0.688732
496498,5.42095e+006,302.31,0.8,0.8,0.8,-0.0516349,0.00424172,0.998657
496440,5.42092e+006,302.86,0.8,0.8,0.8,-0.0305882,0.0253201,0.999211
497657,5.42157e+006,311.6,0.8,0.8,0.8,0.0109651,0.0115485,-0.999873
497001,5.42151e+006,293.56,0.8,0.8,0.8,-0.117504,-0.079121,-0.989915
496805,5.42167e+006,318.08,0.8,0.8,0.8,0.122112,0.198553,0.972453
496971,5.42124e+006,288.69,0.8,0.8,0.8,-0.00281002,0.0961975,0.995358
497020,5.42137e+006,287.09,0.8,0.8,0.8,0.104641,0.401992,-0.909644
497177,5.42159e+006,851.06,0.8,0.8,0.8,-0.28512,0.827592,-0.483526
496701,5.42113e+006,300.93,0.8,0.8,0.8,0.120829,-0.199109,0.9725
496366,5.42101e+006,301.78,0.8,0.8,0.8,-0.194723,-0.276,0.941226
497903,5.42101e+006,379.46,0.8,0.8,0.8,0.135219,-0.870196,0.473788
496631,5.42087e+006,305.69,0.8,0.8,0.8,0.255687,0.131411,0.957787
496461,5.42087e+006,309.76,0.8,0.8,0.8,0.454351,0.822388,0.342409
496783,5.42177e+006,297.2,0.8,0.8,0.8,-0.0916273,-0.0346524,-0.99519
497365,5.42124e+006,308.54,0.8,0.8,0.8,0.349194,-0.625233,0.697959
497226,5.42172e+006,298.44,0.8,0.8,0.8,0.130066,-0.0297798,-0.991058
497165,5.42145e+006,296.81,0.8,0.8,0.8,0.050864,0.196856,-0.979112
496952,5.42076e+006,313.47,0.8,0.8,0.8,0.175285,-0.188473,-0.966309
497376,5.42159e+006,308.12,0.8,0.8,0.8,0.0200126,0.0057063,-0.999783
496420,5.42177e+006,301.41,0.8,0.8,0.8,-0.0722682,0.0596449,-0.9956
497044,5.42112e+006,296.1,0.8,0.8,0.8,-0.215413,0.14918,0.965061
497052,5.42158e+006,305.16,0.8,0.8,0.8,-0.295842,0.792645,-0.533096
497821,5.42104e+006,328.74,0.8,0.8,0.8,-0.025949,0.0320651,0.999149
496426,5.42163e+006,296.73,0.8,0.8,0.8,-0.0395277,0.00556172,-0.999203
497516,5.42113e+006,302.92,0.8,0.8,0.8,0.00884642,0.0176341,0.999805
496913,5.42114e+006,305.86,0.8,0.8,0.8,0.457814,0.0633664,0.886787
497465,5.42166e+006,307.58,0.8,0.8,0.8,0.0352326,-0.0408246,-0.998545
497024,5.42169e+006,293.49,0.8,0.8,0.8,-0.144298,-0.114987,-0.982831
497125,5.42155e+006,301.32,0.8,0.8,0.8,-0.0216468,-0.0440268,-0.998796
497308,5.4217e+006,303.29,0.8,0.8,0.8,0.103522,0.174333,-0.97923
496570,5.42153e+006,287.22,0.8,0.8,0.8,-0.0982331,0.06216,-0.99322
497628,5.42139e+006,297.06,0.8,0.8,0.8,7.8091e-005,0.0715152,-0.99744
496817,5.42158e+006,290.1,0.8,0.8,0.8,0.383686,-0.113182,-0.916501
496725,5.42075e+006,311.79,0.8,0.8,0.8,0.313641,-0.208973,-0.926261
497756,5.42097e+006,327.41,0.8,0.8,0.8,-0.00939148,-0.00131773,0.999955
497160,5.42091e+006,308.15,0.8,0.8,0.8,-0.214773,0.235003,0.947969
496367,5.42173e+006,301.93,0.8,0.8,0.8,-0.0440941,0.0400727,-0.998223
496479,5.42172e+006,294.42,0.8,0.8,0.8,-0.101718,0.0412544,-0.993958
497942,5.42128e+006,315,0.8,0.8,0.8,-0.0283894,0.0914047,0.995409
496424,5.42158e+006,295.78,0.8,0.8,0.8,-0.0325504,0.0337606,-0.9989
497885,5.42113e+006,325.23,0.8,0.8,0.8,-0.0212288,0.0813725,0.996458
496737,5.42085e+006,316.71,0.8,0.8,0.8,-0.593058,0.209852,0.777331
496834,5.42154e+006,850.12,0.8,0.8,0.8,-0.138078,0.98704,0.0817748
497199,5.42112e+006,296.48,0.8,0.8,0.8,-0.0538925,0.0370887,0.997858
496803,5.42166e+006,318.05,0.8,0.8,0.8,-0.548752,-0.829815,-0.101386
497215,5.42141e+006,297.09,0.8,0.8,0.8,0.0139844,-0.0122185,-0.999828
496363,5.42146e+006,289.65,0.8,0.8,0.8,-0.0313857,0.0651547,-0.997382
497822,5.42175e+006,315.27,0.8,0.8,0.8,-0.285966,0.650372,-0.703733
496901,5.42078e+006,322.86,0.8,0.8,0.8,0.267702,0.915457,-0.300456
497083,5.42092e+006,302.44,0.8,0.8,0.8,0.322127,0.200671,0.925184
496831,5.42158e+006,291.45,0.8,0.8,0.8,-0.111061,-0.348417,-0.930737
497407,5.42094e+006,312.3,0.8,0.8,0.8,-0.0608985,-0.0380712,0.997418
497403,5.42173e+006,311.59,0.8,0.8,0.8,-0.00901404,-0.506701,-0.862075
496566,5.42115e+006,296.92,0.8,0.8,0.8,0.0782934,-0.116224,0.990132
497359,5.42095e+006,310.26,0.8,0.8,0.8,-0.221212,-0.163031,0.961502
497919,5.42173e+006,310.81,0.8,0.8,0.8,-0.000464142,-0.0216438,-0.999766
496499,5.42174e+006,293.27,0.8,0.8,0.8,-0.0786763,0.0462822,-0.995825
497299,5.42146e+006,301.31,0.8,0.8,0.8,0.125418,0.116437,-0.985248
496389,5.42097e+006,301.28,0.8,0.8,0.8,-0.0792876,0.0292198,0.996423
496892,5.42178e+006,290.28,0.8,0.8,0.8,-0.109173,-0.121345,-0.986588
496952,5.42116e+006,296.01,0.8,0.8,0.8,-0.109487,0.0252245,0.993668
497640,5.42112e+006,318.99,0.8,0.8,0.8,-0.0842386,0.152456,0.984714
496379,5.42125e+006,273.86,0.8,0.8,0.8,-0.617848,0.458166,0.639021
497700,5.421e+006,326.44,0.8,0.8,0.8,-0.0477641,0.0318679,0.99835
497865,5.4216e+006,310.79,0.8,0.8,0.8,-0.0156686,0.0346053,-0.999278
497767,5.42165e+006,311.67,0.8,0.8,0.8,0.00502105,-0.0118815,-0.999917
497611,5.42098e+006,323.15,0.8,0.8,0.8,-0.0347867,0.00430618,0.999386
496940,5.42128e+006,289.34,0.8,0.8,0.8,0.619609,-0.424676,0.660102
497273,5.42089e+006,310.47,0.8,0.8,0.8,-0.0289542,0.337784,0.940778
496919,5.42177e+006,288.22,0.8,0.8,0.8,-0.12932,-0.244182,-0.961068
497700,5.42175e+006,307.31,0.8,0.8,0.8,0.0410942,0.0136009,-0.999063
497688,5.42103e+006,325.04,0.8,0.8,0.8,-0.0557755,0.020476,0.998233
497317,5.4215e+006,305.88,0.8,0.8,0.8,0.0141447,0.0257571,-0.999568
496585,5.421e+006,315.51,0.8,0.8,0.8,0.160086,0.671955,0.723083
497706,5.42096e+006,328.12,0.8,0.8,0.8,-0.115179,0.00666238,0.993322
497003,5.42156e+006,296.94,0.8,0.8,0.8,0.0149077,0.00886384,-0.99985
496737,5.42077e+006,311.64,0.8,0.8,0.8,0.00742279,0.000258476,-0.999972
496451,5.42162e+006,850.2,0.8,0.8,0.8,-0.432884,0.00360846,-0.901442
497344,5.42104e+006,317.39,0.8,0.8,0.8,-0.0519768,0.339121,0.939306
496747,5.42104e+006,314.05,0.8,0.8,0.8,-0.354665,-0.674702,0.647295
497937,5.42076e+006,334.57,0.8,0.8,0.8,0.0249924,-0.0554233,-0.99815
496416,5.42177e+006,301.36,0.8,0.8,0.8,-0.0641697,0.0546869,-0.996439
496785,5.42075e+006,312.32,0.8,0.8,0.8,-0.287565,0.180623,-0.940575
496618,5.42076e+006,311.82,0.8,0.8,0.8,-0.138605,0.361779,-0.921903
497682,5.42104e+006,338.56,0.8,0.8,0.8,-0.373042,0.343569,-0.861858
496751,5.42085e+006,307.68,0.8,0.8,0.8,0.586548,0.117572,0.801335
496396,5.42086e+006,309.14,0.8,0.8,0.8,-0.196601,-0.3754,0.905772
497237,5.42127e+006,289.93,0.8,0.8,0.8,0.0898726,0.108938,0.989978
496709,5.42107e+006,301.32,0.8,0.8,0.8,0.0513709,0.69858,0.713685
497348,5.42156e+006,307.4,0.8,0.8,0.8,0.0175601,-0.00145805,-0.999845
497530,5.42163e+006,309.79,0.8,0.8,0.8,0.00831891,-0.0189957,-0.999785
497256,5.42169e+006,306.88,0.8,0.8,0.8,0.119411,-0.685032,-0.71866
496823,5.42118e+006,307.86,0.8,0.8,0.8,0.175501,0.0234048,0.984201
496886,5.42075e+006,313.24,0.8,0.8,0.8,0.00548749,-0.226838,-0.973917
496733,5.42174e+006,290.39,0.8,0.8,0.8,0.0799349,0.0225818,-0.996544
496531,5.42148e+006,291.1,0.8,0.8,0.8,0.373301,-0.305997,-0.875793
496944,5.42095e+006,303.53,0.8,0.8,0.8,-0.000384115,-0.00516586,0.999987
496422,5.42144e+006,286.58,0.8,0.8,0.8,-0.03615,0.0815341,-0.996015
496424,5.42159e+006,887.8,0.8,0.8,0.8,-0.164758,0.499584,-0.850453
497253,5.42157e+006,305.33,0.8,0.8,0.8,0.0178806,0.00768698,-0.999811
497457,5.42175e+006,301.76,0.8,0.8,0.8,0.00393062,-0.0344794,-0.999398
497295,5.42096e+006,307.11,0.8,0.8,0.8,-0.19506,-0.0555354,0.979218
497281,5.42126e+006,320.7,0.8,0.8,0.8,0.419284,-0.656883,-0.626662
497227,5.42169e+006,300.32,0.8,0.8,0.8,-0.419237,0.489583,-0.764558
497000,5.4209e+006,304.55,0.8,0.8,0.8,-0.0631398,0.0585581,0.996285
497758,5.42101e+006,327.7,0.8,0.8,0.8,-0.0313433,0.0258491,0.999174
497494,5.42181e+006,298.41,0.8,0.8,0.8,0.0508554,-0.0717238,-0.996127
496984,5.42166e+006,302.59,0.8,0.8,0.8,-0.715534,0.182494,-0.674319
497215,5.42098e+006,299.78,0.8,0.8,0.8,0.133341,-0.19885,0.970916
497500,5.42177e+006,301,0.8,0.8,0.8,0.0656118,-0.0472685,-0.996725
496450,5.42085e+006,308.01,0.8,0.8,0.8,0.389247,0.139928,0.910443
497709,5.42115e+006,319.68,0.8,0.8,0.8,-0.026203,0.068725,0.997292
497562,5.42173e+006,305.7,0.8,0.8,0.8,0.031423,-0.0749418,-0.996693
496764,5.42119e+006,300.46,0.8,0.8,0.8,-0.308776,-0.0545985,0.949566
497869,5.42116e+006,322.4,0.8,0.8,0.8,-0.0220948,0.0939993,0.995327
497059,5.42112e+006,296.64,0.8,0.8,0.8,0.079372,0.040746,0.996012
496792,5.42104e+006,303.44,0.8,0.8,0.8,-0.0155834,0.0414373,0.99902
497401,5.42088e+006,312.46,0.8,0.8,0.8,-0.0538793,0.0637574,0.99651
497662,5.42096e+006,325.21,0.8,0.8,0.8,-0.0354756,0.00357311,0.999364
497397,5.42138e+006,295.26,0.8,0.8,0.8,0.0147348,0.115986,-0.993142
497414,5.42164e+006,307.29,0.8,0.8,0.8,-0.11313,-0.0953152,-0.988998
497595,5.42153e+006,309.4,0.8,0.8,0.8,0.00358073,0.0652488,-0.997863
496351,5.42124e+006,276.54,0.8,0.8,0.8,0.929872,-0.307823,0.201452
496776,5.42094e+006,313.17,0.8,0.8,0.8,0.39649,-0.594115,0.699874
497320,5.42162e+006,305.76,0.8,0.8,0.8,0.0279643,-0.0534661,-0.998178
496548,5.42176e+006,292.23,0.8,0.8,0.8,0.0786047,0.144446,-0.986386
497232,5.42145e+006,301.31,0.8,0.8,0.8,-0.028655,0.00379803,-0.999582
496671,5.42156e+006,275.19,0.8,0.8,0.8,-0.0139908,0.0475132,-0.998773
497905,5.42128e+006,314.08,0.8,0.8,0.8,-0.0170391,0.104101,0.994421
496675,5.42112e+006,298.1,0.8,0.8,0.8,-0.0134993,0.129818,0.991446
496405,5.42144e+006,287.98,0.8,0.8,0.8,-0.0409338,0.0851601,-0.995526
497271,5.42111e+006,300.96,0.8,0.8,0.8,-0.0624443,0.043727,0.99709
496475,5.42126e+006,280.33,0.8,0.8,0.8,0.496363,-0.745018,0.445614
496847,5.42149e+006,306.46,0.8,0.8,0.8,0.809078,-0.248832,-0.532425
497454,5.42107e+006,315.51,0.8,0.8,0.8,-0.0449066,0.0113249,0.998927
496666,5.42178e+006,294.39,0.8,0.8,0.8,-0.00735133,0.0589451,-0.998234
497548,5.42181e+006,299.96,0.8,0.8,0.8,0.0334875,-0.0946064,-0.994951
496424,5.42158e+006,295.53,0.8,0.8,0.8,-0.02923,0.0363007,-0.998913
496535,5.42116e+006,292.59,0.8,0.8,0.8,-0.00464174,-0.0218409,0.999751
497136,5.42085e+006,308.62,0.8,0.8,0.8,0.0642986,0.278813,0.958191
497147,5.42159e+006,305.63,0.8,0.8,0.8,0.0596621,0.053236,-0.996798
497177,5.4215e+006,302.14,0.8,0.8,0.8,-0.0951663,-0.0818415,-0.992091
497539,5.42103e+006,318.74,0.8,0.8,0.8,-0.0995092,0.0888202,0.991065
496892,5.42156e+006,890.04,0.8,0.8,0.8,-0.85029,0.52504,-0.0366055
496648,5.42167e+006,297.67,0.8,0.8,0.8,-0.0520076,-0.479652,-0.875916
496386,5.42128e+006,270.95,0.8,0.8,0.8,0.538476,-0.0406955,0.841658
496398,5.4214e+006,283.07,0.8,0.8,0.8,-0.02642,0.122772,-0.992083
497076,5.42171e+006,292.94,0.8,0.8,0.8,0.11584,-0.0578785,-0.99158
496685,5.42146e+006,280.03,0.8,0.8,0.8,-0.456961,-0.80282,-0.382971
497648,5.42111e+006,321.05,0.8,0.8,0.8,-0.0446231,0.10803,0.993146
496859,5.42146e+006,303.76,0.8,0.8,0.8,0.00841472,-0.991766,0.127783
496716,5.42115e+006,295.73,0.8,0.8,0.8,-0.401467,0.149111,0.903654
497723,5.4212e+006,311.73,0.8,0.8,0.8,-0.0130975,-0.204735,0.97873
497769,5.42149e+006,305.72,0.8,0.8,0.8,-0.0222862,0.097603,-0.994976
496688,5.42162e+006,285.75,0.8,0.8,0.8,-0.443831,0.633854,-0.633438
496491,5.4215e+006,291.14,0.8,0.8,0.8,0.0628149,0.0162973,-0.997892
497032,5.42109e+006,301.11,0.8,0.8,0.8,0.118137,0.0440061,0.992022
497687,5.42098e+006,325.75,0.8,0.8,0.8,-0.0593491,0.00287564,0.998233
497063,5.42126e+006,286.09,0.8,0.8,0.8,0.0117107,0.0792684,0.996785
497292,5.42085e+006,311.44,0.8,0.8,0.8,-0.0454134,0.005071,0.998955
497900,5.4211e+006,327.54,0.8,0.8,0.8,-0.0143449,0.0347208,0.999294
496775,5.42151e+006,280.81,0.8,0.8,0.8,0.239813,-0.32134,-0.916095
497226,5.42085e+006,317.11,0.8,0.8,0.8,-0.519131,0.33037,0.788263
496378,5.42171e+006,300.83,0.8,0.8,0.8,-0.0569842,0.0395164,-0.997593
496639,5.42143e+006,275.49,0.8,0.8,0.8,0.614845,-0.462396,-0.638871
497115,5.42175e+006,291.52,0.8,0.8,0.8,0.0604045,-0.0784438,-0.995087
497647,5.42146e+006,305.38,0.8,0.8,0.8,0.00448981,0.0993702,-0.99504
497646,5.42144e+006,303.36,0.8,0.8,0.8,-0.00391865,0.103722,-0.994599
497898,5.42105e+006,329.81,0.8,0.8,0.8,-0.0281895,0.0308016,0.999128
497558,5.42106e+006,354.53,0.8,0.8,0.8,-0.0278997,0.300307,-0.953434
496516,5.42143e+006,282.5,0.8,0.8,0.8,-0.104203,0.143069,-0.984212
497329,5.42103e+006,309.17,0.8,0.8,0.8,0.00705691,-0.2062,0.978484
497245,5.42128e+006,296.35,0.8,0.8,0.8,-0.066639,0.475271,0.877312
496631,5.42148e+006,277.24,0.8,0.8,0.8,-0.428262,0.00418683,-0.903645
497692,5.42115e+006,319.21,0.8,0.8,0.8,-0.0109486,0.0561311,0.998363
496747,5.42168e+006,322.66,0.8,0.8,0.8,-0.169761,0.503852,0.846944
496772,5.42147e+006,297.3,0.8,0.8,0.8,0.14378,0.982678,-0.116926
496693,5.42161e+006,279.94,0.8,0.8,0.8,0.0845064,0.036174,-0.995766
496570,5.42166e+006,286.18,0.8,0.8,0.8,-0.0719843,-0.000560235,-0.997406
496598,5.4214e+006,273.95,0.8,0.8,0.8,0.460141,-0.33038,-0.824087
496396,5.42156e+006,295.37,0.8,0.8,0.8,-0.0135786,0.0502127,-0.998646
497631,5.42154e+006,310.73,0.8,0.8,0.8,0.00582128,0.0643935,-0.997908
497815,5.42177e+006,308.57,0.8,0.8,0.8,0.0435136,0.227005,-0.972921
497356,5.42163e+006,306.16,0.8,0.8,0.8,0.017458,-0.0695263,-0.997427
497676,5.4214e+006,297.65,0.8,0.8,0.8,0.00702959,0.0781246,-0.996919
496821,5.42086e+006,311.01,0.8,0.8,0.8,-0.559362,-0.488289,0.669841
496625,5.42142e+006,285.95,0.8,0.8,0.8,-0.0772915,-0.218254,-0.972826
496880,5.42153e+006,299.87,0.8,0.8,0.8,-0.3712,-0.837942,-0.40008
497330,5.42117e+006,301.94,0.8,0.8,0.8,-0.0359652,0.0463632,0.998277
496805,5.42123e+006,289.85,0.8,0.8,0.8,0.119749,0.153589,0.980852
496966,5.42094e+006,303.59,0.8,0.8,0.8,-0.00787023,0.0176602,0.999813
496738,5.42112e+006,298.66,0.8,0.8,0.8,0.0763723,-0.168862,0.982676
497884,5.42101e+006,330.7,0.8,0.8,0.8,0.00236845,0.0276472,0.999615
497209,5.42179e+006,292.92,0.8,0.8,0.8,0.0768278,-0.0306979,-0.996572
496482,5.42156e+006,874.36,0.8,0.8,0.8,0.679828,-0.229709,-0.696468
497841,5.42096e+006,330.61,0.8,0.8,0.8,-0.0223488,0.00301186,0.999746
496535,5.42173e+006,290.58,0.8,0.8,0.8,-0.0436977,0.0475442,-0.997913
496826,5.4217e+006,292.9,0.8,0.8,0.8,0.221356,0.204461,-0.953518
497416,5.42102e+006,314.35,0.8,0.8,0.8,-0.050699,0.0108085,0.998655
496509,5.42095e+006,303.34,0.8,0.8,0.8,-0.0528117,-0.0224227,0.998353
497443,5.42113e+006,310.6,0.8,0.8,0.8,-0.13292,0.0885112,0.987167
497888,5.42154e+006,306.56,0.8,0.8,0.8,-0.0372368,0.0765643,-0.996369
497210,5.421e+006,308.63,0.8,0.8,0.8,-0.298353,-0.0187218,0.954272
497063,5.42122e+006,288.42,0.8,0.8,0.8,0.0195249,0.0745165,0.997029
497369,5.42158e+006,891.58,0.8,0.8,0.8,-0.1173,0.0759669,-0.990187
497908,5.42093e+006,331.97,0.8,0.8,0.8,-0.0218994,-0.00464265,0.999749
497648,5.4214e+006,298.15,0.8,0.8,0.8,0.000679424,0.0967404,-0.995309
497372,5.42162e+006,307.27,0.8,0.8,0.8,0.0167811,-0.0936629,-0.995463
