x,y,z,r,g,b,nx,ny,nz
496951.843750,5422119.500000,284.779999,0.8,0.8,0.8,0.011269,-0.073379,0.997240
497136.156250,5422260.000000,286.950012,0.8,0.8,0.8,-0.003652,-0.010440,0.999939
497072.000000,5422060.500000,278.549988,0.8,0.8,0.8,0.021546,-0.035313,0.999144
496166.718750,5421394.000000,291.420013,0.8,0.8,0.8,0.031360,-0.069669,0.997077
496066.562500,5421554.500000,303.269989,0.8,0.8,0.8,0.007711,-0.065890,0.997797
496586.343750,5421417.500000,272.149994,0.8,0.8,0.8,0.104660,-0.172840,0.979374
496497.125000,5422221.000000,302.920013,0.8,0.8,0.8,-0.035627,-0.055463,0.997825
496926.562500,5421423.500000,307.829987,0.8,0.8,0.8,0.225819,-0.132660,0.965094
497003.656250,5421978.500000,277.809998,0.8,0.8,0.8,0.028492,-0.000357,0.999594
496098.343750,5421687.000000,332.190002,0.8,0.8,0.8,0.065226,-0.385996,0.920192
496953.062500,5422306.500000,291.709991,0.8,0.8,0.8,0.020480,-0.033387,0.999233
496432.531250,5421638.000000,296.500000,0.8,0.8,0.8,0.046580,0.004079,0.998906
496020.187500,5421756.000000,312.950012,0.8,0.8,0.8,0.009765,-0.071043,0.997425
496792.218750,5422201.000000,290.829987,0.8,0.8,0.8,0.017187,-0.031320,0.999362
496163.875000,5422218.500000,304.709991,0.8,0.8,0.8,-0.022812,0.103971,0.994319
496474.812500,5421612.500000,294.459991,0.8,0.8,0.8,0.040275,-0.019627,0.998996
497165.437500,5422195.000000,285.359985,0.8,0.8,0.8,0.025973,-0.052619,0.998277
497122.750000,5421741.000000,291.429993,0.8,0.8,0.8,-0.168252,0.040752,0.984901
497174.375000,5421578.500000,303.130005,0.8,0.8,0.8,-0.028735,-0.005643,0.999571
496705.875000,5422240.500000,293.619995,0.8,0.8,0.8,0.014633,-0.029247,0.999465
496248.812500,5422229.000000,305.730011,0.8,0.8,0.8,-0.025798,0.172486,0.984674
496824.750000,5421478.500000,284.390015,0.8,0.8,0.8,-0.199078,0.047373,0.978838
496504.937500,5421582.000000,292.859985,0.8,0.8,0.8,0.052881,-0.013200,0.998514
496846.031250,5421518.500000,290.380005,0.8,0.8,0.8,-0.566570,0.208794,0.797122
496468.375000,5422038.000000,299.019989,0.8,0.8,0.8,0.075852,0.073351,0.994418
496225.718750,5421617.000000,300.119995,0.8,0.8,0.8,0.017399,-0.060571,0.998012
496741.593750,5422326.500000,295.339996,0.8,0.8,0.8,0.013024,-0.009908,0.999866
496968.906250,5422210.500000,289.010010,0.8,0.8,0.8,0.016964,-0.033343,0.999300
496272.093750,5421453.000000,292.350006,0.8,0.8,0.8,0.052106,-0.042208,0.997749
496114.906250,5421530.500000,300.929993,0.8,0.8,0.8,0.012953,-0.057385,0.998268
496548.312500,5421777.500000,294.049988,0.8,0.8,0.8,-0.025161,-0.108709,0.993755
497129.281250,5421640.500000,303.660004,0.8,0.8,0.8,-0.055025,0.087556,0.994639
496203.625000,5422125.500000,300.329987,0.8,0.8,0.8,0.011937,0.033051,0.999382
495981.812500,5421570.000000,888.070007,0.8,0.8,0.8,0.046557,0.045168,-0.997894
497167.781250,5421431.000000,296.829987,0.8,0.8,0.8,-0.002452,-0.005820,0.999980
496887.750000,5421965.000000,283.630005,0.8,0.8,0.8,0.068435,0.025470,0.997330
497160.718750,5421680.000000,307.019989,0.8,0.8,0.8,-0.236218,-0.195617,0.951806
496345.812500,5421663.500000,300.910004,0.8,0.8,0.8,0.037069,-0.034277,0.998725
496816.406250,5421511.500000,291.679993,0.8,0.8,0.8,0.254187,-0.182359,0.949807
497048.062500,5421757.000000,285.290009,0.8,0.8,0.8,-0.119155,0.112657,0.986464
496661.906250,5422259.500000,294.709991,0.8,0.8,0.8,0.017217,-0.025823,0.999518
496307.562500,5421738.000000,305.179993,0.8,0.8,0.8,0.042491,-0.037382,0.998397
496504.156250,5421655.000000,290.959991,0.8,0.8,0.8,0.079666,0.019610,0.996629
496585.656250,5421965.500000,296.920013,0.8,0.8,0.8,-0.009784,-0.010160,0.999901
496853.625000,5421616.500000,294.410004,0.8,0.8,0.8,-0.238053,-0.445248,0.863183
496534.343750,5422227.500000,296.279999,0.8,0.8,0.8,0.270749,-0.105375,0.956865
496278.781250,5421666.500000,302.829987,0.8,0.8,0.8,0.024934,-0.056165,0.998110
496955.000000,5421642.500000,310.320007,0.8,0.8,0.8,-0.002906,0.153314,-0.988173
496353.843750,5422300.000000,299.480011,0.8,0.8,0.8,-0.017830,-0.017801,0.999682
497191.156250,5421641.500000,302.880005,0.8,0.8,0.8,-0.011890,0.091164,0.995765
496707.437500,5421491.000000,277.200012,0.8,0.8,0.8,-0.224538,0.306401,0.925041
496729.656250,5421942.500000,294.890015,0.8,0.8,0.8,0.081250,0.016849,0.996551
496892.125000,5421429.500000,312.779999,0.8,0.8,0.8,-0.041032,-0.150203,0.987803
496779.156250,5422194.500000,290.910004,0.8,0.8,0.8,0.023615,-0.028827,0.999305
496778.375000,5421499.500000,293.019989,0.8,0.8,0.8,-0.510546,0.587129,0.628189
496558.750000,5422293.500000,297.600006,0.8,0.8,0.8,-0.034901,0.233146,0.971815
496746.687500,5421510.000000,281.769989,0.8,0.8,0.8,-0.273993,0.415197,0.867490
496239.875000,5421595.000000,298.799988,0.8,0.8,0.8,0.010560,-0.044501,0.998954
496663.343750,5422085.500000,290.690002,0.8,0.8,0.8,0.035972,0.046961,0.998249
496750.062500,5421497.500000,284.779999,0.8,0.8,0.8,0.305916,0.229847,0.923897
497014.312500,5421715.500000,290.339996,0.8,0.8,0.8,-0.220743,0.256237,0.941071
496871.812500,5421373.500000,287.500000,0.8,0.8,0.8,0.010331,-0.331656,0.943344
496445.656250,5421999.000000,300.839996,0.8,0.8,0.8,0.019261,0.042674,0.998903
496496.500000,5421609.000000,293.339996,0.8,0.8,0.8,0.065760,0.006061,0.997817
495968.812500,5421661.000000,309.769989,0.8,0.8,0.8,0.018740,-0.018826,0.999647
496898.437500,5421476.500000,291.540009,0.8,0.8,0.8,0.004713,-0.275422,0.961312
495955.531250,5422230.000000,306.519989,0.8,0.8,0.8,0.236147,0.313036,0.919915
496655.218750,5422280.500000,295.470001,0.8,0.8,0.8,0.045885,-0.206545,0.977361
496650.687500,5421686.000000,287.170013,0.8,0.8,0.8,-0.077318,0.035916,0.996359
497059.312500,5421610.500000,298.359985,0.8,0.8,0.8,0.153829,0.147366,0.977047
496509.437500,5421598.000000,846.219971,0.8,0.8,0.8,-0.560696,-0.758726,-0.331595
496261.500000,5422227.000000,306.209991,0.8,0.8,0.8,-0.023509,0.187035,0.982072
496750.375000,5421402.000000,290.359985,0.8,0.8,0.8,-0.027422,-0.029444,0.999190
497181.062500,5421546.500000,303.010010,0.8,0.8,0.8,-0.031743,-0.015433,0.999377
496802.125000,5421414.000000,289.549988,0.8,0.8,0.8,0.313926,-0.039894,0.948609
496325.093750,5421964.500000,306.089996,0.8,0.8,0.8,0.036348,0.033009,0.998794
496749.031250,5422129.000000,289.510010,0.8,0.8,0.8,0.004995,-0.043009,0.999062
496772.031250,5421438.500000,291.730011,0.8,0.8,0.8,0.009149,0.218375,0.975822
495966.375000,5421685.500000,310.269989,0.8,0.8,0.8,0.017118,-0.023938,0.999567
496860.187500,5421411.000000,303.309998,0.8,0.8,0.8,0.071824,0.135380,0.988187
497191.531250,5422298.000000,287.309998,0.8,0.8,0.8,0.016521,0.000106,0.999864
496592.250000,5422072.000000,293.649994,0.8,0.8,0.8,0.049225,0.069601,0.996360
496701.562500,5422119.500000,290.089996,0.8,0.8,0.8,0.037147,-0.060559,0.997473
496378.218750,5421622.500000,298.329987,0.8,0.8,0.8,0.032864,-0.027136,0.999091
496211.031250,5421531.000000,297.700012,0.8,0.8,0.8,0.025886,-0.050453,0.998391
495997.343750,5422044.000000,306.500000,0.8,0.8,0.8,-0.005371,0.059845,0.998193
496981.375000,5421429.000000,291.640015,0.8,0.8,0.8,0.010514,-0.052508,0.998565
496830.500000,5421571.500000,288.190002,0.8,0.8,0.8,0.232073,-0.315797,0.920008
496288.968750,5421561.500000,297.160004,0.8,0.8,0.8,0.010981,-0.070004,0.997486
496231.656250,5422305.500000,302.320007,0.8,0.8,0.8,0.195814,0.159287,0.967618
496430.500000,5422156.500000,295.989990,0.8,0.8,0.8,-0.016276,0.020896,0.999649
496668.468750,5422330.000000,296.220001,0.8,0.8,0.8,0.019658,-0.011414,0.999742
497187.906250,5421618.500000,313.959991,0.8,0.8,0.8,0.218238,-0.422391,0.879749
495962.312500,5422284.000000,312.700012,0.8,0.8,0.8,0.859265,0.210852,0.466053
496348.156250,5422065.000000,300.489990,0.8,0.8,0.8,0.025457,0.046927,0.998574
496444.125000,5421714.000000,297.029999,0.8,0.8,0.8,0.071129,-0.044997,0.996452
496374.375000,5421582.000000,297.000000,0.8,0.8,0.8,0.022678,-0.049820,0.998501
496623.750000,5421364.500000,276.989990,0.8,0.8,0.8,-0.074821,0.043948,0.996228
497152.593750,5421541.000000,301.880005,0.8,0.8,0.8,-0.029817,-0.011412,0.999490
496297.625000,5422051.500000,302.720001,0.8,0.8,0.8,0.031299,0.060433,0.997681
496735.875000,5421436.500000,289.950012,0.8,0.8,0.8,-0.072392,0.051825,0.996029
496407.000000,5421599.500000,296.769989,0.8,0.8,0.8,0.035340,-0.027287,0.999003
497157.000000,5421782.500000,294.690002,0.8,0.8,0.8,-0.054722,-0.250708,0.966515
495982.218750,5421670.000000,309.760010,0.8,0.8,0.8,0.017291,-0.019634,0.999658
496113.500000,5421599.000000,304.220001,0.8,0.8,0.8,0.032451,-0.047485,0.998345
497035.812500,5421532.000000,297.070007,0.8,0.8,0.8,-0.026669,-0.034621,0.999045
497062.718750,5421449.000000,293.519989,0.8,0.8,0.8,-0.000686,-0.025869,0.999665
496742.593750,5421370.500000,282.290009,0.8,0.8,0.8,-0.199118,-0.512342,0.835379
496209.812500,5421784.500000,310.809998,0.8,0.8,0.8,0.033224,-0.045765,0.998400
496582.625000,5421639.000000,285.440002,0.8,0.8,0.8,0.078399,0.017385,0.996771
496035.625000,5421513.000000,300.429993,0.8,0.8,0.8,0.014104,-0.067165,0.997642
496019.906250,5421613.000000,307.500000,0.8,0.8,0.8,0.015686,-0.053258,0.998458
496118.937500,5421761.000000,311.230011,0.8,0.8,0.8,0.026672,-0.072724,0.996995
496446.375000,5422312.500000,302.109985,0.8,0.8,0.8,0.004881,-0.098509,0.995124
497012.781250,5421786.000000,277.109985,0.8,0.8,0.8,-0.175516,0.254879,0.950911
496816.531250,5422212.000000,290.750000,0.8,0.8,0.8,0.017567,-0.034176,0.999261
496783.000000,5421464.500000,299.779999,0.8,0.8,0.8,-0.067125,0.813909,0.577102
496869.625000,5422193.500000,289.209991,0.8,0.8,0.8,0.009579,-0.036010,0.999306
496451.500000,5422249.000000,306.049988,0.8,0.8,0.8,-0.010329,0.064930,0.997836
496034.187500,5421645.000000,308.399994,0.8,0.8,0.8,0.016426,-0.025740,0.999534
496302.375000,5421429.500000,289.880005,0.8,0.8,0.8,0.043550,-0.057150,0.997415
496139.843750,5422221.500000,301.989990,0.8,0.8,0.8,-0.028404,0.093535,0.995211
496040.281250,5422067.500000,305.019989,0.8,0.8,0.8,0.012432,0.057567,0.998264
496037.437500,5422293.500000,322.660004,0.8,0.8,0.8,0.513306,-0.398951,0.759839
496124.125000,5421682.500000,305.920013,0.8,0.8,0.8,0.032023,-0.038374,0.998750
496101.906250,5422114.500000,302.250000,0.8,0.8,0.8,0.012416,0.022706,0.999665
496868.531250,5421784.500000,299.100006,0.8,0.8,0.8,0.304867,0.308470,0.901056
496540.031250,5421765.000000,292.579987,0.8,0.8,0.8,-0.039647,-0.106308,0.993543
496886.468750,5422243.500000,290.989990,0.8,0.8,0.8,0.010052,-0.038462,0.999210
496779.062500,5421982.000000,290.720001,0.8,0.8,0.8,0.092115,0.049368,0.994524
496388.343750,5421731.500000,301.170013,0.8,0.8,0.8,0.053692,-0.038186,0.997827
497194.750000,5421410.500000,296.910004,0.8,0.8,0.8,-0.011085,0.006728,0.999916
496558.750000,5422223.500000,295.700012,0.8,0.8,0.8,0.017638,-0.021782,0.999607
496015.406250,5422264.500000,326.589996,0.8,0.8,0.8,-0.351807,-0.192812,0.916000
496068.312500,5421746.500000,311.339996,0.8,0.8,0.8,0.014439,-0.072391,0.997272
496843.468750,5421472.000000,306.820007,0.8,0.8,0.8,-0.831536,-0.212316,0.513293
496744.218750,5421601.500000,281.920013,0.8,0.8,0.8,0.053551,-0.125405,0.990659
496734.781250,5421625.000000,283.859985,0.8,0.8,0.8,-0.061853,-0.048687,0.996897
496215.875000,5422240.500000,301.429993,0.8,0.8,0.8,0.009343,0.093773,0.995550
496068.843750,5422227.000000,303.269989,0.8,0.8,0.8,0.058371,-0.052399,0.996919
496825.531250,5422044.000000,283.670013,0.8,0.8,0.8,0.057006,0.017006,0.998229
495960.687500,5421919.000000,314.429993,0.8,0.8,0.8,-0.005060,0.017621,0.999832
496290.593750,5421671.000000,302.839996,0.8,0.8,0.8,0.017025,-0.055656,0.998305
496035.187500,5421999.000000,310.670013,0.8,0.8,0.8,-0.030640,0.076907,0.996567
496533.250000,5421486.500000,291.500000,0.8,0.8,0.8,0.009963,-0.000908,0.999950
496356.343750,5422341.500000,298.779999,0.8,0.8,0.8,-0.048810,0.182853,0.981928
496525.000000,5422280.500000,303.369995,0.8,0.8,0.8,-0.060308,0.300112,0.951996
496463.375000,5421536.500000,292.640015,0.8,0.8,0.8,0.027749,-0.048394,0.998443
496338.781250,5421433.500000,288.559998,0.8,0.8,0.8,0.038392,-0.072868,0.996602
497034.312500,5422227.000000,288.200012,0.8,0.8,0.8,0.015961,-0.025081,0.999558
496657.625000,5422300.500000,299.609985,0.8,0.8,0.8,-0.007752,0.226140,0.974064
496749.875000,5422186.500000,291.399994,0.8,0.8,0.8,0.024499,-0.021657,0.999465
496211.281250,5421468.000000,294.769989,0.8,0.8,0.8,0.032955,-0.049331,0.998239
497081.625000,5421984.500000,276.269989,0.8,0.8,0.8,0.053371,-0.016960,0.998431
496890.093750,5421448.500000,311.690002,0.8,0.8,0.8,-0.324793,-0.017652,0.945620
496405.937500,5421575.500000,296.070007,0.8,0.8,0.8,0.025695,-0.041343,0.998815
496132.062500,5422155.000000,301.100006,0.8,0.8,0.8,0.024287,-0.004523,0.999695
496789.406250,5422003.000000,288.529999,0.8,0.8,0.8,0.089747,0.066768,0.993724
496958.687500,5421555.500000,294.010010,0.8,0.8,0.8,-0.048224,-0.378830,0.924209
497000.250000,5422148.500000,286.140015,0.8,0.8,0.8,0.019637,-0.055098,0.998288
496721.312500,5421636.000000,283.489990,0.8,0.8,0.8,-0.068901,-0.047418,0.996496
496935.750000,5422286.000000,291.869995,0.8,0.8,0.8,0.015855,-0.015794,0.999750
496676.531250,5421607.500000,284.500000,0.8,0.8,0.8,0.224595,-0.374264,0.899713
497125.437500,5422109.000000,279.540009,0.8,0.8,0.8,0.031437,-0.072011,0.996908
495979.781250,5421603.000000,850.969971,0.8,0.8,0.8,0.201824,0.970136,0.134549
497147.156250,5421606.000000,315.890015,0.8,0.8,0.8,-0.148127,-0.107230,0.983138
496758.031250,5421563.000000,878.239990,0.8,0.8,0.8,-0.711934,0.608020,0.351372
496590.875000,5422051.500000,296.450012,0.8,0.8,0.8,0.203096,0.237571,0.949901
496505.750000,5422128.500000,299.839996,0.8,0.8,0.8,0.012791,-0.044986,0.998906
497072.031250,5421927.500000,275.570007,0.8,0.8,0.8,0.047208,-0.019176,0.998701
496092.437500,5422081.000000,303.750000,0.8,0.8,0.8,0.010103,0.042514,0.999045
496735.250000,5421790.000000,295.390015,0.8,0.8,0.8,-0.181658,-0.228463,0.956454
497015.937500,5421766.000000,281.820007,0.8,0.8,0.8,-0.109851,0.106870,0.988186
496680.875000,5421605.500000,278.549988,0.8,0.8,0.8,0.058464,-0.160969,0.985226
496050.781250,5421461.000000,298.299988,0.8,0.8,0.8,0.028662,-0.323541,0.945780
496875.156250,5421952.500000,284.760010,0.8,0.8,0.8,0.066938,0.013058,0.997672
496123.093750,5421769.000000,311.679993,0.8,0.8,0.8,0.029639,-0.065046,0.997442
496493.781250,5422036.500000,306.140015,0.8,0.8,0.8,0.022676,0.141101,0.989735
496046.843750,5421586.000000,862.070007,0.8,0.8,0.8,-0.170493,0.910201,0.377448
496760.750000,5422172.000000,290.820007,0.8,0.8,0.8,0.024771,-0.023927,0.999407
496398.125000,5422167.500000,295.799988,0.8,0.8,0.8,0.041572,-0.034193,0.998550
496906.562500,5421385.500000,291.079987,0.8,0.8,0.8,0.046341,-0.321528,0.945765
496211.093750,5421585.500000,299.450012,0.8,0.8,0.8,0.039950,-0.029295,0.998772
496730.281250,5421389.500000,287.940002,0.8,0.8,0.8,-0.029391,-0.175353,0.984067
497134.968750,5421516.000000,305.299988,0.8,0.8,0.8,-0.163113,-0.149364,0.975236
497183.937500,5421701.000000,307.220001,0.8,0.8,0.8,-0.255382,-0.260889,0.930976
496749.562500,5421741.000000,290.339996,0.8,0.8,0.8,0.018794,-0.032421,0.999298
496173.718750,5421652.500000,303.279999,0.8,0.8,0.8,0.029834,-0.043494,0.998608
496759.375000,5421996.000000,291.869995,0.8,0.8,0.8,0.099885,0.061860,0.993074
497164.406250,5421367.500000,288.390015,0.8,0.8,0.8,-0.059459,-0.130121,0.989714
497096.593750,5421972.500000,275.470001,0.8,0.8,0.8,0.028441,-0.009244,0.999553
496300.312500,5422235.500000,299.559998,0.8,0.8,0.8,0.181828,0.398088,0.899146
496854.906250,5421461.000000,306.260010,0.8,0.8,0.8,-0.585187,0.251181,0.771015
496681.625000,5421792.000000,292.470001,0.8,0.8,0.8,0.128697,0.093208,0.987294
497069.562500,5421589.500000,863.780029,0.8,0.8,0.8,0.733176,0.325679,0.596982
496068.875000,5422043.500000,306.459991,0.8,0.8,0.8,0.005553,0.089465,0.995974
496562.031250,5421708.000000,288.540009,0.8,0.8,0.8,0.049172,-0.039582,0.998006
496567.375000,5421773.000000,293.920013,0.8,0.8,0.8,-0.019341,-0.098099,0.994989
496300.875000,5422104.500000,299.769989,0.8,0.8,0.8,0.018494,0.033911,0.999254
497075.343750,5422051.500000,278.350006,0.8,0.8,0.8,0.019868,-0.031570,0.999304
496705.062500,5421362.000000,287.260010,0.8,0.8,0.8,-0.288566,-0.600184,0.745996
496417.281250,5422294.000000,298.739990,0.8,0.8,0.8,0.012925,-0.081963,0.996552
496037.750000,5422275.000000,304.970001,0.8,0.8,0.8,0.108887,-0.067562,0.991756
496389.687500,5422177.500000,309.600006,0.8,0.8,0.8,0.120056,-0.066382,0.990545
497163.125000,5422102.500000,277.940002,0.8,0.8,0.8,0.028978,-0.056342,0.997991
496434.375000,5421523.000000,292.559998,0.8,0.8,0.8,0.017885,-0.059078,0.998093
497085.125000,5422022.000000,277.220001,0.8,0.8,0.8,0.026861,-0.023357,0.999366
496182.875000,5421649.000000,302.869995,0.8,0.8,0.8,0.029371,-0.042725,0.998655
496940.562500,5421427.500000,296.079987,0.8,0.8,0.8,0.438201,0.013636,0.898774
496706.437500,5421399.500000,286.209991,0.8,0.8,0.8,-0.143444,-0.025116,0.989340
496679.093750,5421429.500000,277.769989,0.8,0.8,0.8,-0.514917,0.185574,0.836913
496619.687500,5422314.000000,296.779999,0.8,0.8,0.8,-0.000026,0.048095,0.998843
497079.437500,5421444.500000,293.730011,0.8,0.8,0.8,-0.050605,-0.016548,0.998582
496078.062500,5421689.000000,326.369995,0.8,0.8,0.8,0.027445,-0.010150,0.999572
497051.812500,5421476.500000,293.579987,0.8,0.8,0.8,-0.000031,-0.000990,1.000000
496444.437500,5421450.000000,286.959991,0.8,0.8,0.8,0.026882,-0.087403,0.995810
496438.531250,5422235.000000,306.440002,0.8,0.8,0.8,0.017073,-0.137814,0.990311
496915.250000,5421526.000000,293.420013,0.8,0.8,0.8,-0.005079,-0.009042,0.999946
496498.375000,5421684.500000,329.769989,0.8,0.8,0.8,-0.025049,-0.201644,0.979139
497027.750000,5421574.000000,306.730011,0.8,0.8,0.8,-0.028809,-0.002242,0.999582
496891.812500,5421578.000000,298.160004,0.8,0.8,0.8,-0.164215,0.361998,0.917601
496387.125000,5422153.000000,295.720001,0.8,0.8,0.8,0.054746,0.087500,0.994659
497091.031250,5422057.000000,278.019989,0.8,0.8,0.8,0.024050,-0.028634,0.999301
497128.718750,5422339.500000,288.450012,0.8,0.8,0.8,0.018986,-0.010146,0.999768
497190.187500,5421992.500000,277.410004,0.8,0.8,0.8,-0.047713,0.028929,0.998442
496420.031250,5421978.000000,302.399994,0.8,0.8,0.8,0.032314,0.040939,0.998639
497068.093750,5421541.500000,297.709991,0.8,0.8,0.8,-0.012964,-0.015762,0.999792
496141.843750,5421675.000000,326.149994,0.8,0.8,0.8,0.150004,-0.719766,-0.677817
496516.093750,5421654.500000,290.079987,0.8,0.8,0.8,0.073303,0.022541,0.997055
496721.312500,5421747.000000,291.470001,0.8,0.8,0.8,0.057590,-0.014383,0.998237
496497.437500,5421497.000000,291.299988,0.8,0.8,0.8,0.019125,-0.053924,0.998362
496508.500000,5421459.500000,303.320007,0.8,0.8,0.8,-0.431081,0.428757,0.793937
496615.312500,5421623.000000,282.899994,0.8,0.8,0.8,0.122852,0.001115,0.992424
496415.000000,5422137.000000,296.519989,0.8,0.8,0.8,0.017134,-0.002167,0.999851
497105.843750,5422289.000000,288.739990,0.8,0.8,0.8,0.018580,-0.016530,0.999691
496582.156250,5421409.500000,271.220001,0.8,0.8,0.8,0.064533,-0.122949,0.990313
496686.531250,5421588.000000,278.489990,0.8,0.8,0.8,-0.076625,-0.046044,0.995996
496541.343750,5421368.000000,270.850006,0.8,0.8,0.8,0.015884,-0.043795,0.998914
496525.875000,5422121.000000,297.070007,0.8,0.8,0.8,0.148040,0.097302,0.984183
496974.062500,5421458.000000,292.179993,0.8,0.8,0.8,-0.021105,-0.040411,0.998960
496353.375000,5422114.000000,298.589996,0.8,0.8,0.8,0.008535,0.019325,0.999777
496274.593750,5421383.500000,287.459991,0.8,0.8,0.8,0.030559,-0.081889,0.996173
496770.687500,5421681.000000,287.679993,0.8,0.8,0.8,-0.052228,-0.079237,0.995487
496697.656250,5421961.500000,296.820007,0.8,0.8,0.8,0.087016,0.057892,0.994523
496060.500000,5421760.000000,312.399994,0.8,0.8,0.8,0.011579,-0.075134,0.997106
496037.875000,5421992.000000,311.140015,0.8,0.8,0.8,-0.023954,0.065088,0.997592
497131.968750,5421937.500000,276.410004,0.8,0.8,0.8,-0.123013,0.074119,0.989633
496793.000000,5421511.500000,287.850006,0.8,0.8,0.8,-0.115017,0.579669,0.806693
495978.906250,5422177.000000,300.739990,0.8,0.8,0.8,-0.039742,0.192636,0.980465
496823.250000,5421394.000000,307.850006,0.8,0.8,0.8,-0.213642,0.228680,0.949770
496523.781250,5421989.000000,301.609985,0.8,0.8,0.8,0.104212,0.109397,0.988520
496929.531250,5421456.000000,295.170013,0.8,0.8,0.8,-0.847205,-0.041114,0.529673
497073.000000,5422195.000000,286.630005,0.8,0.8,0.8,0.004476,-0.036997,0.999305
496692.593750,5421651.000000,290.799988,0.8,0.8,0.8,-0.702134,0.518604,0.487912
496234.968750,5421692.000000,322.470001,0.8,0.8,0.8,0.146344,0.592885,0.791878
496845.125000,5421773.000000,297.320007,0.8,0.8,0.8,-0.031832,-0.016397,0.999359
495964.531250,5422244.500000,303.600006,0.8,0.8,0.8,-0.144826,-0.049269,0.988230
496004.687500,5422195.500000,299.320007,0.8,0.8,0.8,0.005756,-0.188184,0.982117
497191.125000,5421951.500000,282.529999,0.8,0.8,0.8,-0.091802,0.109785,0.989707
496986.875000,5421522.500000,293.679993,0.8,0.8,0.8,-0.094046,0.044214,0.994586
495950.281250,5421681.500000,310.529999,0.8,0.8,0.8,0.020863,-0.021463,0.999552
496534.250000,5421724.000000,290.549988,0.8,0.8,0.8,0.047726,-0.045677,0.997816
496093.562500,5421633.500000,306.040009,0.8,0.8,0.8,0.033329,-0.021832,0.999206
496576.968750,5421596.500000,287.140015,0.8,0.8,0.8,0.079142,-0.012963,0.996779
496618.125000,5421690.500000,287.290009,0.8,0.8,0.8,-0.024241,-0.076569,0.996770
496486.156250,5421382.000000,281.859985,0.8,0.8,0.8,0.234900,-0.101795,0.966674
496340.156250,5421614.500000,299.040009,0.8,0.8,0.8,0.023215,-0.043469,0.998785
496797.500000,5421496.500000,296.029999,0.8,0.8,0.8,0.017948,-0.396263,0.917962
496658.531250,5421554.500000,281.579987,0.8,0.8,0.8,-0.089540,0.029585,0.995544
496219.875000,5421924.500000,310.929993,0.8,0.8,0.8,0.032354,0.013982,0.999379
496778.093750,5422246.500000,292.739990,0.8,0.8,0.8,0.020612,-0.036085,0.999136
496777.750000,5422077.000000,285.899994,0.8,0.8,0.8,0.055788,0.003875,0.998435
496900.906250,5421670.500000,297.429993,0.8,0.8,0.8,0.026289,0.032094,0.999139
496221.781250,5421557.000000,298.579987,0.8,0.8,0.8,0.037318,-0.012697,0.999223
496644.218750,5422171.500000,293.109985,0.8,0.8,0.8,0.021012,-0.023276,0.999508
496810.500000,5421461.000000,294.850006,0.8,0.8,0.8,0.114243,0.003689,0.993446
496501.687500,5421554.500000,292.109985,0.8,0.8,0.8,0.028359,-0.035439,0.998969
497161.281250,5421401.000000,297.829987,0.8,0.8,0.8,-0.153301,-0.221056,0.963137
496420.687500,5421554.500000,294.779999,0.8,0.8,0.8,0.023854,-0.052287,0.998347
496892.906250,5422168.500000,287.970001,0.8,0.8,0.8,0.010175,-0.040017,0.999147
496826.625000,5421468.500000,290.980011,0.8,0.8,0.8,-0.491825,0.050196,0.869246
496946.281250,5422151.500000,286.910004,0.8,0.8,0.8,-0.001320,-0.055924,0.998434
497061.343750,5422082.500000,280.040009,0.8,0.8,0.8,0.028354,-0.067452,0.997320
497168.062500,5421466.000000,298.000000,0.8,0.8,0.8,-0.051424,-0.068292,0.996339
496983.437500,5422248.000000,289.739990,0.8,0.8,0.8,0.023169,-0.024305,0.999436
496477.312500,5421467.000000,312.190002,0.8,0.8,0.8,0.178465,-0.547279,0.817702
495960.187500,5421620.500000,308.959991,0.8,0.8,0.8,0.028102,-0.028546,0.999197
496475.500000,5422020.000000,300.500000,0.8,0.8,0.8,0.033828,0.087882,0.995556
496382.937500,5421365.500000,281.140015,0.8,0.8,0.8,0.040060,-0.058512,0.997483
496805.875000,5422215.500000,290.980011,0.8,0.8,0.8,0.017917,-0.034427,0.999247
496822.750000,5422092.000000,286.670013,0.8,0.8,0.8,0.016043,-0.026364,0.999524
497154.781250,5421417.000000,298.220001,0.8,0.8,0.8,-0.084778,-0.098208,0.991548
496829.843750,5421547.000000,282.970001,0.8,0.8,0.8,-0.213773,0.429556,0.877372
496063.875000,5422152.000000,302.480011,0.8,0.8,0.8,0.017254,0.002465,0.999848
496765.125000,5421708.500000,289.260010,0.8,0.8,0.8,-0.055272,-0.056533,0.996870
496859.281250,5421550.000000,285.049988,0.8,0.8,0.8,-0.339473,0.082213,0.937016
496373.687500,5422025.000000,301.529999,0.8,0.8,0.8,0.018953,0.040134,0.999015
496853.531250,5422253.000000,291.690002,0.8,0.8,0.8,0.015147,-0.039938,0.999087
496300.656250,5421458.000000,291.250000,0.8,0.8,0.8,0.032454,-0.035384,0.998847
496424.500000,5421417.500000,284.649994,0.8,0.8,0.8,0.052016,-0.108044,0.992784
496979.281250,5422130.500000,285.329987,0.8,0.8,0.8,0.010188,-0.068717,0.997584
496744.593750,5421612.500000,283.540009,0.8,0.8,0.8,0.029788,-0.118561,0.992500
496050.187500,5422115.500000,302.980011,0.8,0.8,0.8,0.015872,0.017071,0.999728
496958.375000,5422036.500000,279.220001,0.8,0.8,0.8,0.014428,-0.015763,0.999772
496856.375000,5422087.500000,284.850006,0.8,0.8,0.8,0.039953,-0.046282,0.998129
496600.781250,5421388.000000,269.890015,0.8,0.8,0.8,0.359659,-0.014786,0.932967
496691.937500,5421513.500000,275.779999,0.8,0.8,0.8,0.182348,0.145845,0.972357
496755.718750,5421459.500000,303.390015,0.8,0.8,0.8,-0.256586,-0.098870,0.961451
496513.437500,5421457.500000,284.670013,0.8,0.8,0.8,0.117521,-0.271515,0.955232
496486.218750,5421596.000000,293.720001,0.8,0.8,0.8,0.038707,-0.018983,0.999070
497063.093750,5421975.500000,276.929993,0.8,0.8,0.8,0.018125,-0.010683,0.999779
496130.812500,5421645.500000,304.640015,0.8,0.8,0.8,0.046866,-0.020226,0.998696
496784.375000,5421385.000000,289.700012,0.8,0.8,0.8,0.089008,-0.106554,0.990315
497001.687500,5421625.500000,297.290009,0.8,0.8,0.8,-0.033457,-0.085937,0.995739
496351.781250,5422056.000000,300.899994,0.8,0.8,0.8,0.026396,0.044093,0.998679
496332.062500,5421381.000000,284.910004,0.8,0.8,0.8,0.053724,-0.084613,0.994965
496576.156250,5422216.500000,295.290009,0.8,0.8,0.8,0.015673,-0.018422,0.999707
496645.281250,5421789.000000,295.149994,0.8,0.8,0.8,0.018873,-0.054734,0.998323
496764.718750,5421525.500000,278.980011,0.8,0.8,0.8,-0.027750,0.075688,0.996745
497101.312500,5422274.500000,288.329987,0.8,0.8,0.8,0.011051,-0.009138,0.999897
497099.843750,5421759.500000,290.359985,0.8,0.8,0.8,-0.027654,0.041287,0.998765
496907.000000,5422170.000000,287.929993,0.8,0.8,0.8,0.005899,-0.040954,0.999144
496077.312500,5421508.500000,299.769989,0.8,0.8,0.8,0.002340,-0.067471,0.997719
496282.687500,5421951.000000,308.179993,0.8,0.8,0.8,0.040652,0.028459,0.998768
496973.656250,5421703.500000,292.880005,0.8,0.8,0.8,0.159095,0.185577,0.969665
496896.750000,5421418.500000,307.940002,0.8,0.8,0.8,0.036021,-0.176691,0.983607
496063.281250,5421576.500000,304.369995,0.8,0.8,0.8,0.010821,-0.048694,0.998755
496663.937500,5422285.500000,297.640015,0.8,0.8,0.8,0.068580,-0.256234,0.964179
496781.843750,5421398.500000,292.660004,0.8,0.8,0.8,-0.003794,-0.113907,0.993484
497120.625000,5421587.500000,301.220001,0.8,0.8,0.8,-0.073693,0.012918,0.997197
496120.968750,5422079.000000,303.510010,0.8,0.8,0.8,0.014931,0.052384,0.998515
496901.968750,5422211.500000,289.559998,0.8,0.8,0.8,0.006763,-0.039069,0.999214
496052.656250,5421547.000000,302.720001,0.8,0.8,0.8,0.008955,-0.077902,0.996921
496966.343750,5422180.000000,287.950012,0.8,0.8,0.8,0.013554,-0.035018,0.999295
496343.875000,5422199.000000,295.679993,0.8,0.8,0.8,0.062913,0.048600,0.996835
496285.187500,5421979.500000,307.450012,0.8,0.8,0.8,0.042858,0.035262,0.998459
496876.437500,5421927.500000,284.929993,0.8,0.8,0.8,0.055476,-0.014903,0.998349
496011.375000,5422234.500000,303.880005,0.8,0.8,0.8,-0.068297,-0.083163,0.994193
495997.812500,5422059.000000,305.750000,0.8,0.8,0.8,0.002223,0.044983,0.998985
496024.625000,5422109.500000,303.549988,0.8,0.8,0.8,0.026710,0.017263,0.999494
496328.406250,5421620.000000,299.549988,0.8,0.8,0.8,0.023910,-0.044573,0.998720
496586.375000,5422080.000000,293.459991,0.8,0.8,0.8,0.057403,0.060067,0.996543
496130.062500,5422165.500000,301.390015,0.8,0.8,0.8,0.026724,-0.008356,0.999608
496840.281250,5421384.000000,299.459991,0.8,0.8,0.8,-0.838533,-0.481120,0.255707
496909.750000,5421475.500000,291.119995,0.8,0.8,0.8,-0.246126,-0.203024,0.947736
496269.468750,5422295.000000,296.119995,0.8,0.8,0.8,0.002446,0.010770,0.999939
496326.375000,5421678.500000,302.190002,0.8,0.8,0.8,0.036834,-0.039178,0.998553
496702.062500,5421965.000000,296.589996,0.8,0.8,0.8,0.062361,0.036073,0.997402
495984.625000,5422107.000000,303.540009,0.8,0.8,0.8,-0.016709,0.039825,0.999067
496196.281250,5422085.000000,302.380005,0.8,0.8,0.8,0.006626,0.051363,0.998658
495962.843750,5421594.500000,869.469971,0.8,0.8,0.8,0.666064,0.572630,-0.477969
496061.500000,5422217.000000,303.410004,0.8,0.8,0.8,0.049929,-0.090865,0.994611
496124.468750,5421583.000000,303.130005,0.8,0.8,0.8,0.039416,-0.040891,0.998386
496849.187500,5421428.500000,291.510010,0.8,0.8,0.8,-0.011776,0.032697,0.999396
496239.312500,5422278.000000,301.119995,0.8,0.8,0.8,0.053542,0.013433,0.998475
496809.000000,5422032.000000,285.010010,0.8,0.8,0.8,0.070229,0.036927,0.996847
495967.968750,5422175.000000,301.190002,0.8,0.8,0.8,-0.033027,0.158250,0.986847
496293.406250,5422239.000000,300.540009,0.8,0.8,0.8,0.185985,0.418647,0.888901
496733.500000,5421997.000000,294.119995,0.8,0.8,0.8,0.065895,0.057302,0.996180
496678.156250,5421371.000000,273.170013,0.8,0.8,0.8,0.025250,-0.026358,0.999334
496525.218750,5421537.000000,290.739990,0.8,0.8,0.8,0.021712,-0.049340,0.998546
496820.531250,5421558.500000,280.119995,0.8,0.8,0.8,0.143979,-0.252666,0.956781
496582.281250,5422141.000000,292.410004,0.8,0.8,0.8,0.014811,-0.033369,0.999333
496228.093750,5422027.500000,306.130005,0.8,0.8,0.8,0.015692,0.068761,0.997510
496369.250000,5422279.500000,299.369995,0.8,0.8,0.8,0.052020,0.047379,0.997522
496071.937500,5421432.500000,274.549988,0.8,0.8,0.8,-0.308961,-0.119988,0.943475
496840.968750,5422155.500000,288.290009,0.8,0.8,0.8,0.026157,-0.033428,0.999099
497144.468750,5422074.500000,277.209991,0.8,0.8,0.8,0.017391,-0.024343,0.999552
496000.937500,5421404.500000,270.730011,0.8,0.8,0.8,0.032106,-0.031424,0.998990
496483.187500,5422159.500000,300.489990,0.8,0.8,0.8,0.059389,-0.003109,0.998230
496870.250000,5421713.500000,297.589996,0.8,0.8,0.8,0.002084,-0.009513,0.999953
495972.000000,5422224.000000,306.459991,0.8,0.8,0.8,-0.068667,0.022920,0.997376
497145.625000,5421790.000000,289.179993,0.8,0.8,0.8,-0.259049,0.061126,0.963928
496683.875000,5421463.500000,288.459991,0.8,0.8,0.8,-0.650613,0.383060,0.655720
496658.687500,5421428.000000,272.640015,0.8,0.8,0.8,-0.179073,0.025109,0.983515
496368.937500,5422274.500000,299.390015,0.8,0.8,0.8,0.090433,0.078816,0.992779
497139.906250,5422137.000000,281.549988,0.8,0.8,0.8,0.031745,-0.090219,0.995416
497126.218750,5421714.500000,303.019989,0.8,0.8,0.8,0.234623,-0.175315,0.956147
497025.062500,5421949.500000,277.299988,0.8,0.8,0.8,0.037810,0.008592,0.999248
496379.062500,5421972.000000,303.760010,0.8,0.8,0.8,0.023161,0.038561,0.998988
495962.718750,5421732.500000,312.320007,0.8,0.8,0.8,0.010815,-0.059591,0.998164
496030.250000,5422229.000000,318.109985,0.8,0.8,0.8,0.532185,-0.246402,0.809978
496682.031250,5421955.500000,300.100006,0.8,0.8,0.8,0.111102,0.084874,0.990178
495955.062500,5422228.000000,316.250000,0.8,0.8,0.8,0.151859,0.337676,0.928932
496254.250000,5422250.000000,300.709991,0.8,0.8,0.8,0.014695,0.034590,0.999294
496858.468750,5422059.500000,282.470001,0.8,0.8,0.8,0.022768,-0.071534,0.997178
496636.562500,5422067.000000,292.529999,0.8,0.8,0.8,0.023341,0.050606,0.998446
496529.312500,5422109.500000,297.239990,0.8,0.8,0.8,0.097911,0.087871,0.991308
496896.656250,5421422.500000,313.369995,0.8,0.8,0.8,0.062906,-0.284578,0.956587
496763.156250,5422307.000000,294.799988,0.8,0.8,0.8,0.025805,0.034349,0.999077
496586.500000,5421622.000000,860.219971,0.8,0.8,0.8,0.415407,-0.803851,-0.425747
497059.656250,5422289.500000,289.630005,0.8,0.8,0.8,0.016816,-0.010034,0.999808
497097.718750,5421533.500000,297.390015,0.8,0.8,0.8,-0.174008,-0.197603,0.964715
496986.062500,5421507.000000,294.920013,0.8,0.8,0.8,-0.017791,-0.027382,0.999467
497189.625000,5421645.500000,302.750000,0.8,0.8,0.8,-0.048361,0.042993,0.997904
496773.375000,5422240.000000,292.589996,0.8,0.8,0.8,0.019401,-0.036732,0.999137
497053.281250,5422321.500000,289.799988,0.8,0.8,0.8,0.021224,-0.016200,0.999644
497196.062500,5421418.500000,296.839996,0.8,0.8,0.8,-0.040515,-0.003384,0.999173
497095.000000,5421762.500000,289.750000,0.8,0.8,0.8,-0.081814,0.074063,0.993892
496406.531250,5422099.500000,300.179993,0.8,0.8,0.8,0.043179,0.020832,0.998850
497084.375000,5421387.500000,294.809998,0.8,0.8,0.8,0.042615,-0.103700,0.993695
496903.531250,5422011.500000,280.940002,0.8,0.8,0.8,0.038564,0.034858,0.998648
496610.687500,5422309.500000,296.929993,0.8,0.8,0.8,0.002088,0.112445,0.993656
497002.468750,5422277.500000,289.980011,0.8,0.8,0.8,0.022155,-0.028967,0.999335
496424.625000,5421598.500000,296.170013,0.8,0.8,0.8,0.033561,-0.023361,0.999164
497147.281250,5421431.000000,298.070007,0.8,0.8,0.8,-0.012108,-0.018402,0.999757
497194.437500,5421383.500000,298.829987,0.8,0.8,0.8,-0.252875,-0.004662,0.967488
496494.468750,5421578.000000,882.280029,0.8,0.8,0.8,-0.521304,-0.086881,-0.848937
496243.656250,5422279.500000,301.049988,0.8,0.8,0.8,0.085561,0.034750,0.995727
496457.312500,5422105.500000,307.989990,0.8,0.8,0.8,0.046702,0.025830,-0.998575
496680.843750,5421774.000000,293.899994,0.8,0.8,0.8,0.037115,-0.030525,0.998845
496067.406250,5422277.000000,304.600006,0.8,0.8,0.8,0.031090,-0.039589,0.998732
496349.906250,5422204.000000,296.380005,0.8,0.8,0.8,0.006459,-0.017616,0.999824
497182.437500,5422203.000000,285.339996,0.8,0.8,0.8,0.014477,-0.046822,0.998798
496313.843750,5422115.500000,299.399994,0.8,0.8,0.8,0.016991,0.030404,0.999393
496867.281250,5421490.500000,293.100006,0.8,0.8,0.8,0.107512,0.219683,0.969629
496871.875000,5421388.000000,296.920013,0.8,0.8,0.8,-0.510218,-0.334343,0.792397
496684.593750,5422286.000000,296.070007,0.8,0.8,0.8,0.054797,-0.256151,0.965082
496812.687500,5421757.500000,296.630005,0.8,0.8,0.8,-0.025684,0.065390,0.997529
496774.750000,5421946.000000,292.359985,0.8,0.8,0.8,0.077475,-0.001967,0.996992
496685.250000,5422183.500000,292.380005,0.8,0.8,0.8,0.012877,-0.024759,0.999611
497001.468750,5421484.000000,298.769989,0.8,0.8,0.8,0.011751,-0.004856,0.999919
496301.781250,5421385.000000,287.239990,0.8,0.8,0.8,0.046187,-0.077316,0.995936
496313.906250,5422077.500000,300.730011,0.8,0.8,0.8,0.021985,0.047886,0.998611
496457.312500,5421353.000000,278.570007,0.8,0.8,0.8,-0.009739,0.173797,0.984733
496201.843750,5421765.000000,310.029999,0.8,0.8,0.8,0.027123,-0.063172,0.997634
495958.937500,5422019.500000,308.200012,0.8,0.8,0.8,-0.006177,0.086039,0.996273
497126.375000,5421734.000000,293.450012,0.8,0.8,0.8,-0.273055,0.024256,0.961693
496837.093750,5421648.000000,290.470001,0.8,0.8,0.8,-0.057697,-0.036153,0.997679
496108.843750,5421983.500000,311.329987,0.8,0.8,0.8,0.005338,0.067839,0.997682
496267.937500,5422139.000000,299.109985,0.8,0.8,0.8,0.015134,0.022732,0.999627
496120.625000,5422260.500000,303.170013,0.8,0.8,0.8,0.023677,-0.024003,0.999431
496568.000000,5422173.500000,294.250000,0.8,0.8,0.8,0.006086,-0.043857,0.999019
496194.375000,5422155.000000,300.049988,0.8,0.8,0.8,0.014602,-0.006795,0.999870
497047.375000,5421762.500000,285.910004,0.8,0.8,0.8,-0.107767,0.097404,0.989393
496239.718750,5422166.500000,302.369995,0.8,0.8,0.8,0.046332,0.001004,0.998926
496767.500000,5421787.500000,297.279999,0.8,0.8,0.8,-0.041533,0.132396,0.990326
496717.718750,5421452.500000,286.640015,0.8,0.8,0.8,-0.059679,0.086676,0.994447
496415.343750,5422142.000000,296.500000,0.8,0.8,0.8,0.003384,0.004058,0.999986
496788.437500,5421958.000000,290.730011,0.8,0.8,0.8,0.084490,0.033470,0.995862
496736.656250,5422078.500000,288.380005,0.8,0.8,0.8,0.052918,0.047907,0.997449
497025.218750,5421765.500000,282.119995,0.8,0.8,0.8,-0.073261,0.075755,0.994431
496909.125000,5422253.500000,291.100006,0.8,0.8,0.8,0.009256,-0.032614,0.999425
496795.468750,5421444.000000,291.279999,0.8,0.8,0.8,0.220801,0.809082,0.544641
496801.125000,5421744.500000,298.119995,0.8,0.8,0.8,-0.082965,-0.084561,0.992958
496643.843750,5422166.500000,292.970001,0.8,0.8,0.8,0.021216,-0.026432,0.999426
496019.437500,5421760.500000,313.250000,0.8,0.8,0.8,0.009633,-0.071675,0.997381
496330.093750,5422245.000000,296.260010,0.8,0.8,0.8,-0.061989,0.103353,0.992711
496182.375000,5421987.500000,310.029999,0.8,0.8,0.8,0.013493,0.059035,0.998165
496429.218750,5422066.000000,299.959991,0.8,0.8,0.8,-0.008734,0.002563,0.999959
497167.062500,5422254.000000,287.010010,0.8,0.8,0.8,0.018897,-0.015300,0.999704
496973.531250,5422055.000000,280.070007,0.8,0.8,0.8,0.016736,-0.034721,0.999257
497056.218750,5421780.000000,281.829987,0.8,0.8,0.8,-0.084645,0.089788,0.992357
497124.500000,5422018.000000,276.019989,0.8,0.8,0.8,0.011464,-0.033341,0.999378
496273.156250,5421549.500000,296.350006,0.8,0.8,0.8,0.014984,-0.070119,0.997426
496766.531250,5422118.000000,288.869995,0.8,0.8,0.8,0.014595,-0.041159,0.999046
497019.968750,5421468.500000,292.880005,0.8,0.8,0.8,-0.031366,-0.030586,0.999040
496114.562500,5421520.000000,300.230011,0.8,0.8,0.8,0.017455,-0.063923,0.997802
497175.968750,5421441.500000,309.239990,0.8,0.8,0.8,0.000834,-0.025386,0.999677
496335.062500,5422010.000000,303.730011,0.8,0.8,0.8,0.045913,0.048798,0.997753
496060.562500,5422044.000000,306.459991,0.8,0.8,0.8,0.010538,0.088292,0.996039
497026.687500,5422081.000000,280.760010,0.8,0.8,0.8,0.016735,-0.075759,0.996986
496200.718750,5422050.000000,304.660004,0.8,0.8,0.8,0.004956,0.081708,0.996644
496715.562500,5421491.500000,279.940002,0.8,0.8,0.8,-0.390527,0.389654,0.834061
496092.312500,5421977.500000,311.739990,0.8,0.8,0.8,0.001185,0.061165,0.998127
496529.406250,5422184.500000,295.160004,0.8,0.8,0.8,0.060725,-0.052136,0.996792
496687.375000,5421420.500000,294.309998,0.8,0.8,0.8,-0.522739,0.378992,0.763616
496636.000000,5421653.000000,283.119995,0.8,0.8,0.8,-0.081918,-0.132465,0.987797
496046.812500,5422303.000000,309.000000,0.8,0.8,0.8,-0.129682,0.086370,0.987787
495971.343750,5422222.000000,320.230011,0.8,0.8,0.8,-0.185103,-0.012153,0.982644
496686.812500,5422154.500000,291.390015,0.8,0.8,0.8,0.014253,-0.039886,0.999103
496701.531250,5422207.000000,292.720001,0.8,0.8,0.8,0.013032,-0.024508,0.999615
496643.250000,5422051.500000,293.160004,0.8,0.8,0.8,0.021890,0.066238,0.997564
496573.562500,5422028.000000,296.350006,0.8,0.8,0.8,-0.030373,-0.027275,0.999166
497016.687500,5422254.500000,289.190002,0.8,0.8,0.8,0.021608,-0.023042,0.999501
495977.343750,5421943.500000,313.790009,0.8,0.8,0.8,-0.003975,0.053779,0.998545
496082.781250,5421474.500000,297.720001,0.8,0.8,0.8,0.016188,-0.055963,0.998302
496406.625000,5421408.500000,284.470001,0.8,0.8,0.8,0.029553,-0.113924,0.993050
496489.375000,5421787.500000,297.359985,0.8,0.8,0.8,0.041827,-0.033616,0.998559
496823.812500,5421389.500000,290.279999,0.8,0.8,0.8,0.079870,-0.339915,0.937059
496415.875000,5421542.500000,294.200012,0.8,0.8,0.8,0.023696,-0.065308,0.997584
496442.875000,5421444.000000,286.500000,0.8,0.8,0.8,0.030764,-0.090412,0.995429
496676.312500,5421943.000000,297.609985,0.8,0.8,0.8,-0.126212,-0.125236,0.984066
496532.531250,5422272.000000,304.549988,0.8,0.8,0.8,0.003423,0.081874,0.996637
496143.968750,5421930.500000,312.920013,0.8,0.8,0.8,0.012271,0.020310,0.999718
496412.562500,5422164.000000,296.529999,0.8,0.8,0.8,-0.000596,0.011854,0.999930
496982.406250,5421424.500000,291.410004,0.8,0.8,0.8,-0.011578,-0.039424,0.999155
497068.250000,5422085.500000,280.040009,0.8,0.8,0.8,0.029745,-0.066805,0.997323
496879.625000,5421472.000000,303.869995,0.8,0.8,0.8,-0.589249,-0.224709,0.776075
496911.343750,5422007.000000,280.839996,0.8,0.8,0.8,0.043648,0.033453,0.998487
496177.218750,5422115.000000,301.040009,0.8,0.8,0.8,0.010697,0.046073,0.998881
496775.906250,5421380.500000,302.920013,0.8,0.8,0.8,0.250425,0.361218,0.898225
496054.968750,5422297.000000,311.799988,0.8,0.8,0.8,0.033158,0.032497,0.998922
496085.062500,5421713.500000,308.730011,0.8,0.8,0.8,0.030568,-0.057968,0.997850
497010.906250,5421568.000000,855.380005,0.8,0.8,0.8,0.026210,-0.084098,0.996113
497004.906250,5421374.000000,287.859985,0.8,0.8,0.8,-0.064897,-0.337129,0.939219
496646.156250,5421397.000000,272.459991,0.8,0.8,0.8,-0.060664,0.033953,0.997581
497145.156250,5421708.500000,296.250000,0.8,0.8,0.8,-0.040174,-0.130333,0.990656
497042.937500,5421981.500000,277.190002,0.8,0.8,0.8,0.008810,-0.013443,0.999871
496495.968750,5422170.500000,299.440002,0.8,0.8,0.8,0.195902,-0.043415,0.979662
496983.812500,5421548.500000,293.760010,0.8,0.8,0.8,-0.033362,-0.038671,0.998695
496303.468750,5422223.500000,306.660004,0.8,0.8,0.8,0.095646,-0.085775,0.991713
497059.812500,5422034.000000,277.619995,0.8,0.8,0.8,0.010080,-0.031580,0.999450
496831.593750,5422327.000000,294.420013,0.8,0.8,0.8,0.010876,-0.026572,0.999588
496718.843750,5422309.500000,295.410004,0.8,0.8,0.8,0.009811,0.119146,0.992828
496935.250000,5421434.500000,302.989990,0.8,0.8,0.8,0.547414,-0.028538,0.836376
497069.125000,5422251.500000,288.390015,0.8,0.8,0.8,0.010530,-0.022000,0.999703
496182.156250,5422309.500000,310.230011,0.8,0.8,0.8,-0.140964,0.208485,0.967814
497190.718750,5422203.000000,285.329987,0.8,0.8,0.8,0.016655,-0.050158,0.998602
496233.281250,5422260.000000,301.070007,0.8,0.8,0.8,0.018388,-0.003559,0.999825
496388.468750,5422176.000000,296.279999,0.8,0.8,0.8,0.072853,-0.084245,0.993778
496673.406250,5421403.500000,292.730011,0.8,0.8,0.8,-0.437883,-0.254198,0.862346
496990.468750,5421537.000000,322.119995,0.8,0.8,0.8,-0.179931,-0.228441,0.956786
497077.468750,5422264.000000,288.579987,0.8,0.8,0.8,0.014523,-0.017776,0.999736
496574.437500,5422111.000000,292.859985,0.8,0.8,0.8,0.043378,0.019301,0.998872
496128.187500,5421685.000000,305.899994,0.8,0.8,0.8,0.027643,-0.044359,0.998633
496859.156250,5421656.000000,292.040009,0.8,0.8,0.8,-0.117043,-0.072301,0.990492
496156.156250,5421927.000000,312.850006,0.8,0.8,0.8,0.015630,0.019492,0.999688
496851.718750,5421741.000000,297.339996,0.8,0.8,0.8,-0.041255,-0.011307,0.999085
497114.687500,5421547.000000,302.040009,0.8,0.8,0.8,0.087826,0.088765,0.992173
496487.312500,5421494.500000,291.140015,0.8,0.8,0.8,0.038613,0.013904,0.999158
496145.187500,5422266.500000,302.839996,0.8,0.8,0.8,0.053517,-0.202912,0.977733
496887.625000,5421465.000000,293.320007,0.8,0.8,0.8,0.157317,0.151463,0.975864
496870.593750,5421442.000000,301.880005,0.8,0.8,0.8,-0.092824,0.328186,0.940041
496405.406250,5422236.000000,306.760010,0.8,0.8,0.8,0.021887,-0.314434,0.949027
496687.593750,5422118.000000,292.540009,0.8,0.8,0.8,-0.000688,-0.068501,0.997651
496072.656250,5422314.000000,305.440002,0.8,0.8,0.8,0.046737,0.013655,0.998814
497029.843750,5421920.500000,277.190002,0.8,0.8,0.8,0.035093,-0.007749,0.999354
497148.625000,5421485.000000,297.350006,0.8,0.8,0.8,-0.061486,-0.052201,0.996742
496683.437500,5421414.000000,285.369995,0.8,0.8,0.8,-0.902644,-0.075785,0.423663
496048.187500,5421768.000000,313.010010,0.8,0.8,0.8,0.025715,-0.075745,0.996796
496852.843750,5421439.000000,306.920013,0.8,0.8,0.8,-0.357798,0.209672,0.909955
496828.687500,5421432.000000,307.320007,0.8,0.8,0.8,-0.774168,0.077980,0.628159
496841.687500,5421412.500000,292.790009,0.8,0.8,0.8,-0.182220,0.062627,0.981261
496420.875000,5421560.000000,295.049988,0.8,0.8,0.8,0.024028,-0.043896,0.998747
496450.218750,5421527.000000,292.480011,0.8,0.8,0.8,0.022903,-0.054822,0.998233
496828.875000,5421525.000000,287.369995,0.8,0.8,0.8,0.299941,-0.065814,0.951685
497082.593750,5422057.000000,278.209991,0.8,0.8,0.8,0.023761,-0.028498,0.999311
496382.875000,5422152.000000,296.170013,0.8,0.8,0.8,0.066085,0.097384,0.993050
496726.031250,5421382.500000,287.760010,0.8,0.8,0.8,0.131673,0.013270,0.991204
496677.531250,5421629.000000,278.769989,0.8,0.8,0.8,-0.257906,0.265370,0.929012
496574.406250,5421388.500000,270.619995,0.8,0.8,0.8,-0.116808,0.069393,0.990727
496943.312500,5421489.500000,292.910004,0.8,0.8,0.8,-0.018528,-0.026593,0.999475
496717.375000,5422249.000000,293.640015,0.8,0.8,0.8,0.016778,-0.029551,0.999422
497137.968750,5422225.000000,287.230011,0.8,0.8,0.8,-0.015289,-0.028956,0.999464
496931.312500,5421496.000000,292.959991,0.8,0.8,0.8,0.088040,0.065813,0.993940
496105.343750,5422293.500000,304.070007,0.8,0.8,0.8,0.032045,0.026695,0.999130
496835.468750,5421393.000000,305.600006,0.8,0.8,0.8,-0.192392,-0.066329,0.979074
496820.156250,5422238.000000,291.679993,0.8,0.8,0.8,0.015832,-0.040190,0.999067
496455.281250,5421695.000000,295.390015,0.8,0.8,0.8,0.077427,-0.033683,0.996429
496833.875000,5421548.500000,283.429993,0.8,0.8,0.8,-0.136386,0.338720,0.930950
496303.875000,5421643.500000,301.429993,0.8,0.8,0.8,0.019360,-0.056395,0.998221
496154.531250,5421387.500000,291.429993,0.8,0.8,0.8,0.028802,-0.069871,0.997140
496428.781250,5421415.000000,284.130005,0.8,0.8,0.8,0.053759,-0.116089,0.991783
496611.156250,5422203.000000,294.410004,0.8,0.8,0.8,0.020071,-0.019860,0.999601
497144.562500,5421486.500000,297.579987,0.8,0.8,0.8,-0.022645,-0.020507,0.999533
497199.843750,5421553.000000,303.690002,0.8,0.8,0.8,-0.031611,-0.012690,0.999420
495950.000000,5421650.500000,309.980011,0.8,0.8,0.8,0.021662,-0.022368,0.999515
496834.750000,5421377.500000,309.950012,0.8,0.8,0.8,0.100051,-0.132579,0.986110
497064.031250,5421628.500000,860.330017,0.8,0.8,0.8,0.113308,0.699153,0.705937
496505.000000,5422333.500000,298.079987,0.8,0.8,0.8,-0.000286,0.008693,0.999962
496851.968750,5421404.000000,300.649994,0.8,0.8,0.8,0.333724,-0.583898,0.740062
496235.843750,5421695.000000,304.769989,0.8,0.8,0.8,0.009865,-0.058388,0.998245
496895.375000,5421386.500000,291.440002,0.8,0.8,0.8,0.056913,-0.249971,0.966579
496056.375000,5421535.000000,301.779999,0.8,0.8,0.8,0.008268,-0.075312,0.997126
497004.031250,5421782.500000,276.079987,0.8,0.8,0.8,-0.103304,0.220145,0.969982
496349.375000,5421409.000000,286.359985,0.8,0.8,0.8,0.043365,-0.072732,0.996408
496102.843750,5421364.000000,290.220001,0.8,0.8,0.8,-0.025896,-0.051608,0.998332
497179.187500,5421646.000000,302.649994,0.8,0.8,0.8,-0.050551,0.029740,0.998279
497126.468750,5421501.000000,297.670013,0.8,0.8,0.8,-0.054490,-0.063805,0.996474
496829.875000,5421994.500000,285.890015,0.8,0.8,0.8,0.068649,0.069661,0.995206
496040.218750,5421741.000000,311.609985,0.8,0.8,0.8,0.033587,-0.063356,0.997426
496901.718750,5421574.000000,292.890015,0.8,0.8,0.8,0.066618,0.043313,0.996838
496509.156250,5421678.500000,290.459991,0.8,0.8,0.8,0.069264,-0.016627,0.997460
496678.593750,5422248.000000,294.140015,0.8,0.8,0.8,0.017084,-0.027611,0.999473
496560.218750,5421462.000000,282.630005,0.8,0.8,0.8,0.094088,-0.177024,0.979699
496804.843750,5421382.000000,286.130005,0.8,0.8,0.8,-0.195819,-0.139647,0.970646
496802.562500,5421513.500000,287.679993,0.8,0.8,0.8,-0.352738,0.540461,0.763857
496028.375000,5421633.500000,307.950012,0.8,0.8,0.8,0.012546,-0.029034,0.999500
496924.625000,5421629.500000,302.250000,0.8,0.8,0.8,0.007067,0.005289,0.999961
496993.812500,5421755.000000,281.959991,0.8,0.8,0.8,-0.078077,0.169125,0.982497
496691.750000,5421699.000000,289.230011,0.8,0.8,0.8,0.213540,-0.198760,0.956502
496401.343750,5421510.000000,292.320007,0.8,0.8,0.8,0.017714,-0.065173,0.997717
497194.781250,5422289.000000,286.690002,0.8,0.8,0.8,0.018524,-0.013398,0.999739
496857.437500,5421513.000000,293.950012,0.8,0.8,0.8,0.202716,0.135140,0.969868
495959.500000,5422171.500000,301.660004,0.8,0.8,0.8,-0.058916,0.119903,0.991036
497069.000000,5421386.500000,290.769989,0.8,0.8,0.8,0.029593,-0.111072,0.993372
496562.250000,5421953.500000,298.619995,0.8,0.8,0.8,0.085627,0.075765,0.993442
496748.468750,5421609.500000,883.289978,0.8,0.8,0.8,-0.443611,0.731365,0.517991
496059.937500,5421425.000000,274.779999,0.8,0.8,0.8,-0.152871,-0.024278,0.987948
496744.250000,5421546.500000,278.410004,0.8,0.8,0.8,-0.072803,-0.015897,0.997220
496610.343750,5422253.500000,295.459991,0.8,0.8,0.8,0.018507,-0.035674,0.999192
496691.687500,5421744.000000,301.079987,0.8,0.8,0.8,-0.005725,0.076335,-0.997066
496993.781250,5422116.500000,284.109985,0.8,0.8,0.8,0.013024,-0.073717,0.997194
496588.843750,5422223.500000,295.190002,0.8,0.8,0.8,0.019999,-0.019502,0.999610
496581.968750,5422322.500000,297.339996,0.8,0.8,0.8,0.009584,-0.010986,0.999894
496513.593750,5421390.500000,280.000000,0.8,0.8,0.8,0.171678,-0.126032,0.977058
496131.875000,5421691.000000,318.540009,0.8,0.8,0.8,0.020082,-0.131753,-0.991079
496782.375000,5421438.000000,292.100006,0.8,0.8,0.8,-0.034428,0.227089,0.973265
496330.187500,5422148.000000,298.839996,0.8,0.8,0.8,0.019393,-0.054002,0.998352
