x,y,z,r,g,b,nx,ny,nz
499797.031250,5419189.000000,258.679993,0.8,0.8,0.8,-0.058155,0.048126,-0.997147
500202.281250,5418482.500000,284.309998,0.8,0.8,0.8,0.056158,-0.087279,-0.994600
499526.187500,5418898.000000,257.299988,0.8,0.8,0.8,0.009701,-0.018564,0.999781
500230.875000,5419119.000000,245.339996,0.8,0.8,0.8,-0.017641,0.027893,-0.999455
500426.156250,5419329.500000,250.300003,0.8,0.8,0.8,-0.037439,0.047473,-0.998171
500095.812500,5418455.500000,282.500000,0.8,0.8,0.8,0.023868,-0.093829,-0.995302
500150.656250,5419229.500000,251.940002,0.8,0.8,0.8,0.023130,-0.027279,-0.999360
499789.406250,5419327.000000,267.410004,0.8,0.8,0.8,0.030479,0.066845,-0.997298
500402.687500,5419385.500000,308.630005,0.8,0.8,0.8,0.658009,0.576857,0.484004
499777.281250,5419368.500000,271.420013,0.8,0.8,0.8,-0.038560,0.086446,-0.995510
499929.593750,5419339.500000,266.630005,0.8,0.8,0.8,-0.040900,0.079865,-0.995966
500441.625000,5418822.500000,258.109985,0.8,0.8,0.8,-0.021863,-0.044496,-0.998770
500025.812500,5419423.500000,265.109985,0.8,0.8,0.8,-0.052606,0.028806,-0.998200
500240.718750,5419041.500000,242.440002,0.8,0.8,0.8,-0.020301,-0.007117,-0.999769
499579.250000,5419338.500000,292.149994,0.8,0.8,0.8,0.767560,-0.047520,-0.639214
500452.062500,5418923.500000,252.029999,0.8,0.8,0.8,-0.000355,-0.040312,-0.999187
499465.968750,5418725.000000,245.929993,0.8,0.8,0.8,-0.043186,0.031047,-0.998585
499845.250000,5418867.500000,245.419998,0.8,0.8,0.8,0.075745,-0.068647,0.994761
500285.468750,5418805.000000,261.390015,0.8,0.8,0.8,-0.026680,-0.146322,-0.988877
500307.000000,5419217.000000,246.229996,0.8,0.8,0.8,-0.011705,0.042975,-0.999008
499666.531250,5419030.500000,259.720001,0.8,0.8,0.8,0.033301,-0.035591,0.998811
499707.750000,5418601.500000,241.789993,0.8,0.8,0.8,0.233952,0.051991,-0.970857
500431.312500,5419282.500000,247.389999,0.8,0.8,0.8,0.046639,0.054258,-0.997437
499628.812500,5418330.500000,260.790009,0.8,0.8,0.8,0.079938,-0.010344,-0.996746
499577.093750,5418493.000000,257.040009,0.8,0.8,0.8,-0.330841,-0.880921,-0.338412
499911.531250,5418564.000000,269.690002,0.8,0.8,0.8,-0.167810,0.102979,-0.980426
500366.375000,5419313.500000,251.100006,0.8,0.8,0.8,0.036728,0.090620,-0.995208
500321.312500,5419326.500000,251.660004,0.8,0.8,0.8,0.016792,0.058037,-0.998173
499961.968750,5418957.000000,245.639999,0.8,0.8,0.8,-0.029053,0.041583,-0.998713
499691.531250,5419397.500000,283.019989,0.8,0.8,0.8,-0.204840,0.190119,-0.960154
499733.312500,5418795.000000,251.979996,0.8,0.8,0.8,0.022001,0.059744,0.997971
499517.343750,5418645.000000,244.509995,0.8,0.8,0.8,-0.169558,-0.095535,-0.980879
500256.812500,5419052.500000,251.190002,0.8,0.8,0.8,0.311084,-0.826888,-0.468490
500005.156250,5419319.500000,262.730011,0.8,0.8,0.8,-0.052369,0.075929,-0.995737
500525.656250,5419192.000000,244.009995,0.8,0.8,0.8,-0.005141,0.015774,-0.999862
500073.781250,5419220.000000,251.360001,0.8,0.8,0.8,-0.014718,0.027943,-0.999501
499841.125000,5418457.500000,276.809998,0.8,0.8,0.8,-0.008277,-0.044334,-0.998982
499880.125000,5419229.000000,257.510010,0.8,0.8,0.8,-0.027040,0.067045,-0.997384
499944.906250,5418481.000000,275.950012,0.8,0.8,0.8,0.076471,0.021278,-0.996845
500036.500000,5419280.000000,270.609985,0.8,0.8,0.8,-0.537297,-0.555123,-0.634941
499694.687500,5418558.000000,250.270004,0.8,0.8,0.8,0.009074,-0.056098,-0.998384
499752.718750,5419401.000000,275.359985,0.8,0.8,0.8,-0.084650,0.059230,-0.994649
500141.562500,5419285.500000,253.240005,0.8,0.8,0.8,-0.120056,0.115739,-0.985997
499603.218750,5418651.500000,247.820007,0.8,0.8,0.8,-0.263612,-0.572704,-0.776221
500477.218750,5419093.000000,243.979996,0.8,0.8,0.8,0.043954,0.031683,-0.998531
499931.156250,5419289.000000,262.109985,0.8,0.8,0.8,-0.005019,0.089973,-0.995932
500218.687500,5418893.000000,248.979996,0.8,0.8,0.8,-0.012343,-0.104079,-0.994492
499596.875000,5419202.500000,272.399994,0.8,0.8,0.8,0.008928,-0.174443,0.984627
500298.562500,5419279.000000,249.029999,0.8,0.8,0.8,0.010014,0.043617,-0.998998
499921.250000,5418469.500000,274.250000,0.8,0.8,0.8,-0.001181,-0.056170,-0.998421
500353.812500,5419118.000000,243.600006,0.8,0.8,0.8,-0.004020,0.030580,-0.999524
500395.500000,5419278.500000,248.119995,0.8,0.8,0.8,-0.012669,0.025654,-0.999591
499661.500000,5419042.500000,260.429993,0.8,0.8,0.8,0.007597,-0.053577,0.998535
499642.531250,5418377.500000,265.769989,0.8,0.8,0.8,-0.319826,-0.865989,-0.384414
500185.000000,5418923.000000,242.720001,0.8,0.8,0.8,0.085996,-0.131353,-0.987599
499644.687500,5418474.500000,256.290009,0.8,0.8,0.8,0.063133,-0.008831,-0.997966
500171.843750,5418894.500000,243.770004,0.8,0.8,0.8,0.117017,-0.177509,-0.977138
499810.687500,5418555.000000,258.049988,0.8,0.8,0.8,-0.952313,-0.132065,-0.275063
500055.906250,5418781.000000,265.750000,0.8,0.8,0.8,-0.512050,0.356670,0.781403
500181.906250,5419121.000000,246.320007,0.8,0.8,0.8,-0.007303,0.020216,-0.999769
499789.437500,5418660.000000,243.149994,0.8,0.8,0.8,0.001067,0.024540,-0.999698
499724.250000,5419021.500000,256.559998,0.8,0.8,0.8,0.041886,-0.037960,0.998401
499553.343750,5419229.500000,280.079987,0.8,0.8,0.8,0.147156,-0.140207,0.979126
500136.343750,5418513.000000,280.970001,0.8,0.8,0.8,-0.010326,-0.065506,-0.997799
500341.031250,5418815.000000,259.510010,0.8,0.8,0.8,-0.026567,-0.094003,-0.995217
500041.437500,5419364.500000,267.559998,0.8,0.8,0.8,0.211427,-0.867348,-0.450562
499977.812500,5418515.500000,274.630005,0.8,0.8,0.8,0.081484,-0.042514,-0.995768
500065.218750,5418686.500000,271.589996,0.8,0.8,0.8,0.073212,-0.044220,-0.996336
500094.375000,5418476.000000,281.359985,0.8,0.8,0.8,0.033882,-0.052431,-0.998050
499483.656250,5418347.000000,268.959991,0.8,0.8,0.8,0.095469,-0.027794,-0.995044
499880.843750,5418611.000000,250.449997,0.8,0.8,0.8,0.179639,-0.211734,-0.960676
499634.656250,5419388.500000,301.899994,0.8,0.8,0.8,-0.231037,-0.490996,-0.839967
499667.093750,5419291.500000,275.940002,0.8,0.8,0.8,-0.071457,0.033055,-0.996896
499653.125000,5418997.500000,258.190002,0.8,0.8,0.8,0.031397,-0.064083,0.997451
499995.406250,5419423.000000,267.119995,0.8,0.8,0.8,-0.057306,-0.008790,-0.998318
499942.281250,5418469.000000,275.489990,0.8,0.8,0.8,0.065359,-0.016663,-0.997723
500544.656250,5418981.000000,247.690002,0.8,0.8,0.8,0.001437,-0.120951,-0.992657
500014.500000,5418351.500000,285.809998,0.8,0.8,0.8,0.006826,-0.067059,-0.997726
500105.406250,5418561.000000,278.679993,0.8,0.8,0.8,-0.016575,-0.043604,-0.998911
499964.093750,5419387.000000,268.670013,0.8,0.8,0.8,-0.054436,0.038252,-0.997784
500382.687500,5419321.000000,251.460007,0.8,0.8,0.8,-0.011791,0.073748,-0.997207
499510.562500,5418972.500000,261.290009,0.8,0.8,0.8,0.033863,-0.044231,0.998447
499585.343750,5419364.500000,294.880005,0.8,0.8,0.8,-0.059597,0.140436,-0.988294
499824.125000,5419068.000000,286.649994,0.8,0.8,0.8,-0.003866,-0.032680,-0.999458
499725.843750,5418524.000000,255.190002,0.8,0.8,0.8,0.278772,-0.354133,-0.892679
499940.531250,5419324.500000,265.230011,0.8,0.8,0.8,-0.013799,0.081438,-0.996583
500290.343750,5419366.500000,265.920013,0.8,0.8,0.8,0.411787,-0.701554,-0.581596
499793.656250,5418401.500000,276.929993,0.8,0.8,0.8,0.895064,-0.154001,-0.418502
499693.718750,5418707.000000,244.309998,0.8,0.8,0.8,-0.007421,-0.028050,-0.999579
499540.843750,5419094.000000,266.929993,0.8,0.8,0.8,0.051301,-0.072029,0.996082
500099.343750,5418502.000000,280.519989,0.8,0.8,0.8,0.019692,-0.039542,-0.999024
499515.250000,5418570.000000,245.740005,0.8,0.8,0.8,0.029380,-0.007892,-0.999537
499838.343750,5418722.000000,266.019989,0.8,0.8,0.8,0.785193,-0.070060,0.615275
499892.093750,5419158.000000,253.589996,0.8,0.8,0.8,-0.024503,0.024796,-0.999392
500401.750000,5419194.500000,250.860001,0.8,0.8,0.8,-0.259828,0.939297,0.224078
499848.781250,5419403.000000,274.429993,0.8,0.8,0.8,-0.045180,0.100366,-0.993924
499721.000000,5418408.500000,263.769989,0.8,0.8,0.8,0.035377,0.002424,-0.999371
500168.406250,5419220.000000,250.589996,0.8,0.8,0.8,-0.029958,-0.001460,-0.999550
500420.968750,5419164.500000,243.970001,0.8,0.8,0.8,-0.026663,0.007818,-0.999614
500165.500000,5418960.000000,254.050003,0.8,0.8,0.8,0.440674,-0.884117,-0.155378
500133.656250,5419211.500000,251.809998,0.8,0.8,0.8,-0.438531,0.350673,-0.827478
499996.937500,5418370.000000,283.989990,0.8,0.8,0.8,0.003825,-0.068486,-0.997645
499784.937500,5419391.000000,273.480011,0.8,0.8,0.8,0.014460,0.090830,-0.995761
500040.687500,5419416.000000,263.929993,0.8,0.8,0.8,-0.069237,0.035710,-0.996961
500065.000000,5419408.000000,262.760010,0.8,0.8,0.8,-0.016056,0.045608,-0.998830
499510.343750,5418800.500000,252.789993,0.8,0.8,0.8,0.016370,-0.025712,0.999535
499975.531250,5419160.000000,251.229996,0.8,0.8,0.8,-0.029910,0.031109,-0.999068
499849.125000,5418427.500000,279.019989,0.8,0.8,0.8,0.029571,-0.073104,-0.996886
499860.343750,5419098.000000,253.660004,0.8,0.8,0.8,-0.045101,0.008664,-0.998945
500213.531250,5419271.000000,250.240005,0.8,0.8,0.8,-0.023161,0.051912,-0.998383
499759.875000,5419419.000000,277.140015,0.8,0.8,0.8,-0.089157,0.194798,-0.976783
499852.562500,5418371.500000,282.339996,0.8,0.8,0.8,-0.005281,-0.050627,-0.998704
499963.781250,5418443.500000,277.720001,0.8,0.8,0.8,0.048479,-0.071807,-0.996240
500056.312500,5418920.000000,244.369995,0.8,0.8,0.8,0.029027,-0.025746,-0.999247
500494.093750,5418909.500000,252.779999,0.8,0.8,0.8,-0.001797,-0.055194,-0.998474
499897.500000,5418612.000000,257.850006,0.8,0.8,0.8,0.564385,0.024209,-0.825157
500464.531250,5419120.000000,244.059998,0.8,0.8,0.8,-0.006693,-0.013516,-0.999886
499498.875000,5418446.000000,249.740005,0.8,0.8,0.8,-0.250677,-0.324285,-0.912140
499489.843750,5419235.000000,288.089996,0.8,0.8,0.8,0.083813,-0.111310,0.990245
499550.312500,5418981.500000,260.220001,0.8,0.8,0.8,0.021212,-0.055185,0.998251
500097.187500,5419191.000000,254.100006,0.8,0.8,0.8,-0.712314,-0.535963,-0.453158
499545.156250,5418551.500000,246.679993,0.8,0.8,0.8,0.011873,-0.041137,-0.999083
500526.343750,5419061.500000,244.100006,0.8,0.8,0.8,0.046935,0.023742,-0.998616
500189.000000,5419112.000000,246.059998,0.8,0.8,0.8,-0.009714,0.009616,-0.999907
500341.906250,5418881.000000,253.960007,0.8,0.8,0.8,0.068779,-0.056182,-0.996049
500208.125000,5418943.000000,242.529999,0.8,0.8,0.8,-0.003035,0.009467,-0.999951
499978.593750,5418961.000000,245.360001,0.8,0.8,0.8,-0.022075,0.046932,-0.998654
499552.437500,5419205.500000,276.940002,0.8,0.8,0.8,0.040911,0.007713,0.999133
499734.281250,5419357.500000,272.290009,0.8,0.8,0.8,-0.080362,0.064928,-0.994649
500078.625000,5418870.000000,244.089996,0.8,0.8,0.8,-0.016766,-0.048258,-0.998694
500352.687500,5419061.500000,244.039993,0.8,0.8,0.8,0.004746,-0.000466,-0.999989
500306.531250,5419137.000000,249.740005,0.8,0.8,0.8,0.469677,-0.880912,0.058286
499873.250000,5419294.500000,263.510010,0.8,0.8,0.8,-0.003296,0.112790,-0.993613
500153.718750,5418930.000000,283.690002,0.8,0.8,0.8,-0.578326,-0.293252,-0.761277
499604.875000,5418785.000000,248.770004,0.8,0.8,0.8,0.042476,-0.071844,0.996511
499808.625000,5418907.000000,249.820007,0.8,0.8,0.8,-0.020572,0.016966,0.999644
499524.812500,5418471.000000,250.580002,0.8,0.8,0.8,0.134384,0.071042,-0.988379
499796.031250,5419184.500000,258.519989,0.8,0.8,0.8,-0.071272,0.034988,-0.996843
500095.093750,5418619.500000,276.140015,0.8,0.8,0.8,0.131815,-0.072875,-0.988592
500204.187500,5418854.500000,255.139999,0.8,0.8,0.8,0.034968,-0.053823,-0.997938
500463.656250,5419246.000000,244.389999,0.8,0.8,0.8,-0.145034,-0.012918,-0.989342
500065.906250,5418375.000000,285.989990,0.8,0.8,0.8,0.068909,-0.030319,-0.997162
499814.218750,5419186.000000,257.529999,0.8,0.8,0.8,-0.071508,0.044558,-0.996444
500307.312500,5418794.500000,262.369995,0.8,0.8,0.8,-0.019373,-0.122796,-0.992243
500106.500000,5419188.500000,250.149994,0.8,0.8,0.8,-0.043361,0.061037,-0.997193
500161.468750,5419187.500000,254.389999,0.8,0.8,0.8,-0.057226,-0.979574,0.192771
500174.218750,5418915.500000,242.539993,0.8,0.8,0.8,-0.009285,0.000604,-0.999957
500487.218750,5419015.000000,244.539993,0.8,0.8,0.8,-0.017739,-0.086767,-0.996071
500256.406250,5418962.000000,244.660004,0.8,0.8,0.8,0.010804,-0.013767,-0.999847
499807.531250,5419209.000000,259.000000,0.8,0.8,0.8,-0.054725,0.039467,-0.997721
499909.062500,5418593.000000,264.359985,0.8,0.8,0.8,0.149347,-0.579995,-0.800813
500040.093750,5418535.500000,277.929993,0.8,0.8,0.8,0.051588,-0.014385,-0.998565
499513.187500,5418668.500000,268.329987,0.8,0.8,0.8,-0.092092,0.879596,-0.466723
499783.781250,5418590.500000,249.029999,0.8,0.8,0.8,-0.087118,0.195233,-0.976880
499539.531250,5419386.500000,301.760010,0.8,0.8,0.8,-0.055731,0.183665,-0.981408
500411.812500,5419293.500000,248.289993,0.8,0.8,0.8,-0.024972,0.064888,-0.997580
499836.468750,5418657.000000,246.720001,0.8,0.8,0.8,0.024115,-0.022490,-0.999456
499676.531250,5418707.000000,244.250000,0.8,0.8,0.8,-0.008765,-0.013657,-0.999868
499718.593750,5419116.000000,260.790009,0.8,0.8,0.8,0.040313,-0.050146,0.997928
500016.250000,5418918.000000,244.179993,0.8,0.8,0.8,-0.008056,-0.011662,-0.999900
499744.875000,5418565.500000,254.039993,0.8,0.8,0.8,-0.237179,0.821046,-0.519258
499725.875000,5419210.500000,263.899994,0.8,0.8,0.8,-0.028819,0.036787,-0.998908
499669.593750,5418850.500000,251.229996,0.8,0.8,0.8,0.026080,-0.047942,0.998510
499661.468750,5418333.500000,278.459991,0.8,0.8,0.8,0.898752,-0.406847,-0.163465
500073.750000,5419296.000000,262.369995,0.8,0.8,0.8,-0.282406,-0.679281,-0.677365
499470.843750,5419122.500000,274.040009,0.8,0.8,0.8,0.071266,-0.100249,0.992407
499720.875000,5418968.500000,254.839996,0.8,0.8,0.8,0.052060,-0.036729,0.997968
500016.937500,5419316.000000,266.600006,0.8,0.8,0.8,0.522053,0.851810,0.043372
499951.093750,5418367.000000,284.269989,0.8,0.8,0.8,-0.002440,-0.061154,-0.998125
499461.500000,5418544.000000,249.089996,0.8,0.8,0.8,0.634789,0.587213,-0.502219
499654.031250,5419386.500000,289.929993,0.8,0.8,0.8,-0.267322,0.242886,-0.932494
500149.093750,5419369.500000,268.149994,0.8,0.8,0.8,0.212077,0.190104,0.958584
500217.625000,5418846.500000,261.459991,0.8,0.8,0.8,0.241454,0.963355,0.116821
499512.718750,5418606.500000,244.320007,0.8,0.8,0.8,0.086611,-0.170847,-0.981484
499997.343750,5418702.500000,265.220001,0.8,0.8,0.8,-0.562131,0.712141,-0.420552
500049.687500,5419412.000000,263.339996,0.8,0.8,0.8,-0.043213,0.023658,-0.998786
499680.093750,5418965.000000,256.279999,0.8,0.8,0.8,0.038919,-0.040309,0.998429
500088.343750,5418481.500000,280.980011,0.8,0.8,0.8,0.010385,-0.010212,-0.999894
499543.468750,5418609.500000,257.130005,0.8,0.8,0.8,0.439067,0.638266,0.632327
500164.218750,5418606.000000,277.829987,0.8,0.8,0.8,0.082398,-0.031539,-0.996100
500387.906250,5419345.500000,253.089996,0.8,0.8,0.8,-0.049809,0.069588,-0.996332
499644.750000,5418805.500000,249.830002,0.8,0.8,0.8,0.019425,-0.020747,0.999596
499910.906250,5418822.000000,244.919998,0.8,0.8,0.8,-0.020584,-0.012877,0.999705
499829.437500,5419197.500000,257.459991,0.8,0.8,0.8,-0.054451,0.063255,-0.996511
499898.093750,5418777.000000,252.929993,0.8,0.8,0.8,0.709330,-0.135068,-0.691814
499990.562500,5418833.000000,244.339996,0.8,0.8,0.8,0.037301,-0.031185,0.998817
499669.125000,5419062.000000,260.600006,0.8,0.8,0.8,0.066010,-0.026480,0.997468
499996.500000,5419003.500000,246.960007,0.8,0.8,0.8,-0.028624,0.039766,-0.998799
499545.437500,5418479.000000,251.399994,0.8,0.8,0.8,-0.159360,0.105494,-0.981568
499607.218750,5419405.000000,299.350006,0.8,0.8,0.8,-0.090000,0.135389,-0.986697
500472.531250,5418946.000000,251.809998,0.8,0.8,0.8,-0.026197,0.062118,-0.997725
500437.187500,5419262.500000,246.149994,0.8,0.8,0.8,-0.027951,0.054345,-0.998131
500202.843750,5419365.000000,260.779999,0.8,0.8,0.8,-0.008670,0.229843,-0.973189
499881.750000,5418423.500000,280.200012,0.8,0.8,0.8,0.033792,-0.048492,-0.998252
499726.375000,5418785.500000,251.580002,0.8,0.8,0.8,-0.008595,0.024260,0.999669
499473.593750,5419078.000000,269.279999,0.8,0.8,0.8,0.077258,-0.104312,0.991539
500029.562500,5419422.000000,264.809998,0.8,0.8,0.8,-0.073185,0.025490,-0.996993
499810.437500,5418924.000000,250.380005,0.8,0.8,0.8,0.010616,-0.007435,0.999916
499711.843750,5418576.500000,244.669998,0.8,0.8,0.8,-0.120779,-0.321701,-0.939106
499463.156250,5418575.500000,245.539993,0.8,0.8,0.8,-0.005425,0.009092,-0.999944
499669.250000,5418337.000000,282.350006,0.8,0.8,0.8,0.823454,-0.134619,-0.551181
499872.218750,5418662.500000,259.130005,0.8,0.8,0.8,-0.421256,0.777082,-0.467640
499684.187500,5418422.500000,262.690002,0.8,0.8,0.8,0.320256,0.280806,-0.904756
499629.937500,5418935.500000,256.700012,0.8,0.8,0.8,0.016953,-0.030495,0.999391
499785.250000,5419142.500000,258.649994,0.8,0.8,0.8,-0.092662,-0.000770,-0.995697
500165.156250,5418944.500000,243.889999,0.8,0.8,0.8,-0.012126,0.200632,-0.979592
499542.375000,5419139.000000,270.649994,0.8,0.8,0.8,0.048444,-0.052828,0.997428
500076.968750,5419205.000000,255.229996,0.8,0.8,0.8,0.794935,0.485164,0.364273
500533.625000,5419025.000000,244.380005,0.8,0.8,0.8,-0.020874,-0.079289,-0.996633
499755.625000,5418725.000000,278.700012,0.8,0.8,0.8,-0.805572,0.570339,0.160520
499728.781250,5418916.500000,252.589996,0.8,0.8,0.8,0.052879,-0.041559,0.997736
499630.187500,5418335.500000,260.839996,0.8,0.8,0.8,0.087271,-0.031221,-0.995695
499756.968750,5418374.500000,263.869995,0.8,0.8,0.8,-0.013261,0.000746,-0.999912
500142.062500,5419400.500000,281.720001,0.8,0.8,0.8,0.647262,-0.328167,-0.688010
500315.156250,5419144.500000,260.880005,0.8,0.8,0.8,0.517295,-0.789504,0.330287
499627.875000,5418506.500000,251.220001,0.8,0.8,0.8,0.003195,-0.030187,-0.999539
499463.406250,5418443.000000,248.759995,0.8,0.8,0.8,0.012610,0.013688,-0.999827
500148.406250,5418610.000000,277.970001,0.8,0.8,0.8,-0.021948,-0.031553,-0.999261
499522.937500,5418906.000000,257.839996,0.8,0.8,0.8,-0.003129,-0.010814,0.999937
500055.593750,5419382.000000,262.130005,0.8,0.8,0.8,-0.238405,-0.062682,-0.969141
500219.750000,5419414.000000,272.390015,0.8,0.8,0.8,-0.001344,0.176501,-0.984300
500164.812500,5419181.500000,249.059998,0.8,0.8,0.8,-0.059144,0.032913,-0.997707
499558.875000,5418579.500000,246.509995,0.8,0.8,0.8,0.165426,-0.122467,-0.978589
500402.437500,5418983.000000,245.300003,0.8,0.8,0.8,-0.006664,-0.029916,-0.999530
500320.375000,5419382.000000,273.290009,0.8,0.8,0.8,-0.572701,0.682603,-0.453946
499506.687500,5419182.000000,278.390015,0.8,0.8,0.8,-0.741531,0.085645,0.665430
499704.312500,5419364.000000,275.589996,0.8,0.8,0.8,-0.129411,0.080214,-0.988341
500500.875000,5419124.500000,243.979996,0.8,0.8,0.8,-0.013046,-0.002018,-0.999913
499519.937500,5419408.000000,306.619995,0.8,0.8,0.8,-0.159199,0.637499,-0.753824
500060.000000,5418650.000000,273.070007,0.8,0.8,0.8,0.026028,-0.020645,-0.999448
499515.937500,5418704.000000,246.130005,0.8,0.8,0.8,0.078174,0.154439,-0.984905
499985.031250,5418391.500000,282.880005,0.8,0.8,0.8,0.014783,-0.035081,-0.999275
500394.218750,5419045.500000,244.020004,0.8,0.8,0.8,0.001561,-0.006615,-0.999977
499573.031250,5419387.000000,302.579987,0.8,0.8,0.8,0.795927,0.331434,0.506609
500055.031250,5418788.000000,249.779999,0.8,0.8,0.8,-0.047924,0.216289,-0.975152
500300.031250,5418827.500000,258.649994,0.8,0.8,0.8,0.004134,-0.107166,-0.994233
499517.812500,5418926.500000,258.970001,0.8,0.8,0.8,0.037469,-0.030716,0.998826
500094.406250,5418403.500000,284.000000,0.8,0.8,0.8,-0.010229,-0.038546,-0.999205
499649.281250,5418656.500000,244.850006,0.8,0.8,0.8,-0.008237,0.279994,-0.959966
499698.312500,5418481.000000,263.640015,0.8,0.8,0.8,-0.174625,0.905504,-0.386740
499644.187500,5419104.000000,263.609985,0.8,0.8,0.8,0.043735,-0.027020,0.998678
499745.375000,5418937.000000,252.589996,0.8,0.8,0.8,0.035064,-0.053019,0.997978
499589.875000,5418448.500000,254.020004,0.8,0.8,0.8,0.046824,-0.029473,-0.998468
500081.718750,5419304.000000,255.800003,0.8,0.8,0.8,-0.069501,0.070426,-0.995093
500260.500000,5419134.000000,245.169998,0.8,0.8,0.8,-0.019707,0.021858,-0.999567
500537.031250,5419065.000000,244.199997,0.8,0.8,0.8,-0.006445,0.002269,-0.999977
500105.531250,5418896.500000,269.709991,0.8,0.8,0.8,-0.696911,0.455871,0.553621
499622.687500,5418804.500000,249.970001,0.8,0.8,0.8,0.015382,-0.058649,0.998160
500215.218750,5418468.500000,285.850006,0.8,0.8,0.8,0.020376,-0.072571,-0.997155
500517.281250,5418816.500000,258.369995,0.8,0.8,0.8,-0.020716,-0.084472,-0.996211
500092.656250,5418833.500000,251.619995,0.8,0.8,0.8,-0.646633,-0.384267,0.658942
499670.718750,5419230.500000,268.929993,0.8,0.8,0.8,0.243368,0.068970,-0.967479
499744.031250,5418943.000000,252.960007,0.8,0.8,0.8,0.045327,-0.023119,0.998705
500505.718750,5418945.500000,251.330002,0.8,0.8,0.8,0.022548,-0.045802,-0.998696
499684.125000,5419341.000000,276.769989,0.8,0.8,0.8,-0.055745,0.048105,-0.997286
500053.375000,5418611.000000,275.230011,0.8,0.8,0.8,0.030463,-0.041246,-0.998685
500143.500000,5418613.500000,277.799988,0.8,0.8,0.8,-0.004952,-0.041329,-0.999133
500429.281250,5419061.500000,243.899994,0.8,0.8,0.8,0.002811,0.006254,-0.999977
500442.062500,5418906.000000,252.899994,0.8,0.8,0.8,-0.070268,-0.070747,-0.995016
500341.906250,5418962.500000,245.789993,0.8,0.8,0.8,0.027970,-0.094649,-0.995118
500468.781250,5419091.500000,254.250000,0.8,0.8,0.8,-0.423680,0.023052,0.905519
499885.406250,5419406.500000,273.290009,0.8,0.8,0.8,-0.055066,0.081138,-0.995181
500142.000000,5418921.500000,243.910004,0.8,0.8,0.8,0.232799,0.335334,-0.912883
499878.250000,5418363.500000,283.239990,0.8,0.8,0.8,0.022057,-0.038745,-0.999006
499762.687500,5418627.000000,245.940002,0.8,0.8,0.8,-0.008773,-0.200058,-0.979745
499643.843750,5418507.000000,258.589996,0.8,0.8,0.8,0.167744,-0.713423,-0.680360
499637.562500,5419377.000000,290.640015,0.8,0.8,0.8,-0.044711,0.178561,-0.982912
499691.937500,5418338.000000,276.799988,0.8,0.8,0.8,0.014177,-0.428407,-0.903475
499478.500000,5418644.500000,257.119995,0.8,0.8,0.8,0.077552,0.084962,0.993362
499983.062500,5419053.000000,248.410004,0.8,0.8,0.8,-0.018096,-0.002936,-0.999832
499567.937500,5418608.000000,257.739990,0.8,0.8,0.8,0.410959,-0.356035,-0.839257
500115.062500,5419117.500000,247.339996,0.8,0.8,0.8,-0.032895,0.026780,-0.999100
500011.781250,5418433.000000,286.100006,0.8,0.8,0.8,0.496512,0.794532,0.349565
500178.218750,5418953.500000,258.869995,0.8,0.8,0.8,0.461133,-0.875361,-0.145258
500014.375000,5419278.000000,258.109985,0.8,0.8,0.8,-0.047609,0.110162,-0.992773
499497.968750,5418660.000000,247.289993,0.8,0.8,0.8,-0.021140,0.014119,-0.999677
500199.656250,5419053.500000,243.619995,0.8,0.8,0.8,-0.017596,0.032131,-0.999329
500104.968750,5419130.500000,247.850006,0.8,0.8,0.8,-0.005270,0.046938,-0.998884
500147.281250,5418945.500000,243.600006,0.8,0.8,0.8,-0.041607,0.072269,-0.996517
500226.312500,5419368.500000,261.820007,0.8,0.8,0.8,0.072615,0.304077,-0.949876
500296.500000,5419034.000000,244.279999,0.8,0.8,0.8,0.002427,-0.009684,-0.999950
499572.687500,5418481.000000,252.350006,0.8,0.8,0.8,0.017185,-0.034887,-0.999243
499864.250000,5418932.000000,248.130005,0.8,0.8,0.8,0.035093,-0.046384,0.998307
499807.906250,5419305.000000,265.510010,0.8,0.8,0.8,-0.069858,0.090091,-0.993480
500335.218750,5419160.000000,243.729996,0.8,0.8,0.8,-0.247214,0.462450,-0.851484
500453.968750,5418892.000000,253.820007,0.8,0.8,0.8,0.042598,-0.076096,-0.996190
499698.062500,5419194.000000,285.359985,0.8,0.8,0.8,-0.056284,-0.163483,-0.984939
499819.937500,5418371.000000,282.019989,0.8,0.8,0.8,-0.002295,-0.054444,-0.998514
499473.375000,5418366.500000,263.690002,0.8,0.8,0.8,0.341896,-0.309597,-0.887275
500141.468750,5418337.000000,288.619995,0.8,0.8,0.8,-0.175422,-0.212632,-0.961257
499667.218750,5418382.500000,261.230011,0.8,0.8,0.8,0.041111,-0.029690,-0.998713
500089.500000,5418826.000000,290.320007,0.8,0.8,0.8,0.014249,-0.027823,-0.999511
500211.906250,5418363.500000,293.019989,0.8,0.8,0.8,0.238420,0.122154,-0.963449
499805.562500,5419008.500000,252.839996,0.8,0.8,0.8,0.019540,-0.016392,0.999675
499609.812500,5418338.500000,264.119995,0.8,0.8,0.8,-0.705701,-0.017756,-0.708287
499703.281250,5418593.000000,241.800003,0.8,0.8,0.8,-0.012167,-0.063971,-0.997878
500110.656250,5418921.500000,243.710007,0.8,0.8,0.8,-0.018532,0.009020,-0.999788
500079.906250,5419270.000000,253.839996,0.8,0.8,0.8,-0.027141,0.056709,-0.998022
500239.125000,5419023.000000,260.619995,0.8,0.8,0.8,0.138642,-0.683364,-0.716793
500197.312500,5419419.500000,280.079987,0.8,0.8,0.8,0.056541,-0.992604,-0.107429
499603.218750,5418464.500000,254.199997,0.8,0.8,0.8,0.081045,-0.056803,-0.995090
499483.281250,5418655.000000,256.260010,0.8,0.8,0.8,0.867058,-0.412769,0.278985
499588.250000,5419341.500000,293.459991,0.8,0.8,0.8,0.391292,0.226759,-0.891892
499560.562500,5419212.500000,281.420013,0.8,0.8,0.8,0.806680,-0.473692,0.353388
499858.500000,5419118.000000,254.059998,0.8,0.8,0.8,-0.027607,0.000962,-0.999618
500150.000000,5418935.500000,276.579987,0.8,0.8,0.8,-0.409520,-0.816938,-0.406085
499544.687500,5418543.000000,247.169998,0.8,0.8,0.8,0.033482,-0.057901,-0.997761
499979.375000,5418419.500000,281.820007,0.8,0.8,0.8,-0.024737,-0.077307,-0.996700
499670.250000,5419136.000000,264.140015,0.8,0.8,0.8,0.048987,-0.064694,0.996702
499490.875000,5418385.500000,268.170013,0.8,0.8,0.8,0.482648,-0.781354,-0.395646
499792.718750,5419194.500000,259.019989,0.8,0.8,0.8,-0.060375,0.032337,-0.997652
500163.875000,5418625.500000,276.829987,0.8,0.8,0.8,-0.077068,-0.038326,-0.996289
499534.812500,5419233.500000,282.700012,0.8,0.8,0.8,0.110717,-0.086323,0.990096
500303.156250,5419133.000000,262.559998,0.8,0.8,0.8,0.973563,0.006372,-0.228328
500139.312500,5419143.000000,249.509995,0.8,0.8,0.8,0.216655,-0.276133,-0.936382
500040.375000,5419386.000000,263.559998,0.8,0.8,0.8,-0.062645,-0.211328,-0.975406
499851.093750,5418651.000000,246.830002,0.8,0.8,0.8,0.044139,-0.004814,-0.999014
499712.468750,5418931.500000,253.669998,0.8,0.8,0.8,0.013856,-0.042334,0.999007
500145.906250,5418793.000000,262.269989,0.8,0.8,0.8,-0.193283,-0.165388,-0.967103
499841.062500,5418360.000000,282.869995,0.8,0.8,0.8,-0.014697,-0.068475,-0.997545
499689.093750,5418491.500000,265.290009,0.8,0.8,0.8,0.435461,0.197882,-0.878189
499993.625000,5418683.000000,258.910004,0.8,0.8,0.8,0.022545,-0.034788,-0.999140
499947.781250,5418383.000000,283.200012,0.8,0.8,0.8,-0.007579,-0.099611,-0.994998
499832.125000,5418442.000000,277.670013,0.8,0.8,0.8,0.031188,-0.058324,-0.997810
499700.250000,5418484.000000,266.899994,0.8,0.8,0.8,0.040869,0.364101,-0.930462
499654.468750,5419370.000000,289.869995,0.8,0.8,0.8,-0.268247,-0.729598,-0.629071
500116.062500,5418385.000000,284.480011,0.8,0.8,0.8,-0.010221,-0.040076,-0.999144
499766.062500,5418396.500000,263.489990,0.8,0.8,0.8,-0.029859,0.003212,-0.999549
499573.906250,5419412.000000,307.040009,0.8,0.8,0.8,0.704819,0.101588,-0.702075
499753.906250,5419375.000000,272.549988,0.8,0.8,0.8,-0.033615,0.092526,-0.995143
499922.937500,5418505.500000,274.839996,0.8,0.8,0.8,0.361183,0.235365,-0.902303
499995.812500,5419282.500000,259.839996,0.8,0.8,0.8,-0.035185,0.129220,-0.990992
499769.156250,5418583.000000,248.330002,0.8,0.8,0.8,0.236984,-0.062112,-0.969526
500091.062500,5419221.000000,251.320007,0.8,0.8,0.8,0.030965,0.042289,-0.998625
499800.625000,5418651.500000,248.610001,0.8,0.8,0.8,0.207641,0.737319,-0.642842
499719.218750,5419357.500000,273.589996,0.8,0.8,0.8,-0.097913,0.067565,-0.992899
499888.781250,5418426.500000,280.299988,0.8,0.8,0.8,0.005916,-0.039550,-0.999200
500285.406250,5418948.000000,245.600006,0.8,0.8,0.8,0.015112,-0.032702,-0.999351
499606.906250,5418396.000000,256.850006,0.8,0.8,0.8,-0.025826,-0.066335,-0.997463
500220.968750,5419201.000000,247.880005,0.8,0.8,0.8,-0.032294,0.033400,-0.998920
500280.906250,5419126.000000,244.360001,0.8,0.8,0.8,-0.140100,0.237704,-0.961181
499611.375000,5418613.000000,244.429993,0.8,0.8,0.8,-0.141090,0.178076,0.973849
499515.875000,5418533.500000,246.479996,0.8,0.8,0.8,0.036241,-0.037741,-0.998630
499550.656250,5418669.500000,252.910004,0.8,0.8,0.8,0.628893,0.676808,-0.382655
500072.656250,5418852.500000,276.709991,0.8,0.8,0.8,-0.768569,-0.583802,0.261680
500179.906250,5418950.500000,269.739990,0.8,0.8,0.8,0.906634,-0.408630,-0.105056
499762.625000,5419324.500000,268.209991,0.8,0.8,0.8,-0.056622,0.089872,-0.994342
499475.156250,5419162.000000,282.399994,0.8,0.8,0.8,0.306790,-0.413708,0.857161
500150.750000,5419130.500000,254.229996,0.8,0.8,0.8,0.068632,0.520435,-0.851139
499548.375000,5419332.000000,285.309998,0.8,0.8,0.8,0.333954,0.429290,-0.839157
499929.187500,5418351.000000,285.209991,0.8,0.8,0.8,0.005224,-0.073455,-0.997285
499624.031250,5418929.500000,256.589996,0.8,0.8,0.8,0.013883,-0.033682,0.999336
500158.343750,5418973.000000,243.839996,0.8,0.8,0.8,0.030516,0.008228,-0.999500
500206.781250,5419019.500000,242.429993,0.8,0.8,0.8,-0.048845,-0.001166,-0.998806
500078.531250,5419161.000000,265.630005,0.8,0.8,0.8,0.523209,-0.564093,0.638789
499548.968750,5419213.500000,284.079987,0.8,0.8,0.8,-0.192797,0.934006,0.300768
499966.656250,5419182.000000,252.529999,0.8,0.8,0.8,-0.045433,0.036644,-0.998295
500062.531250,5418453.500000,283.170013,0.8,0.8,0.8,-0.277601,-0.348151,-0.895393
499472.562500,5418511.500000,248.970001,0.8,0.8,0.8,-0.035177,0.628599,-0.776933
500369.750000,5419189.500000,253.729996,0.8,0.8,0.8,-0.456156,0.511605,0.728136
500041.406250,5418446.000000,282.510010,0.8,0.8,0.8,0.075217,0.027713,-0.996782
500154.031250,5418861.500000,264.359985,0.8,0.8,0.8,0.258881,0.326922,0.908902
500076.343750,5419197.000000,274.519989,0.8,0.8,0.8,0.622459,-0.230636,0.747899
499808.750000,5418548.500000,253.240005,0.8,0.8,0.8,-0.023410,-0.054963,-0.998214
500411.843750,5419106.000000,243.940002,0.8,0.8,0.8,0.004586,-0.013826,-0.999894
500402.218750,5419210.500000,247.960007,0.8,0.8,0.8,0.896695,-0.407339,0.173242
499450.062500,5419343.000000,304.480011,0.8,0.8,0.8,-0.132584,0.119505,-0.983941
499923.937500,5419167.000000,252.880005,0.8,0.8,0.8,-0.027186,0.015407,-0.999512
499568.750000,5418492.500000,257.649994,0.8,0.8,0.8,-0.006238,-0.603224,-0.797547
500186.312500,5418569.500000,279.190002,0.8,0.8,0.8,0.005141,-0.054280,-0.998513
500136.625000,5418931.500000,262.649994,0.8,0.8,0.8,0.025101,0.212350,0.976871
499522.125000,5418377.000000,266.140015,0.8,0.8,0.8,0.376013,-0.122275,-0.918511
499880.156250,5418872.500000,244.070007,0.8,0.8,0.8,0.032476,0.003587,0.999466
500202.375000,5418387.000000,291.170013,0.8,0.8,0.8,0.023925,-0.057943,-0.998033
499701.031250,5418807.500000,247.740005,0.8,0.8,0.8,0.040776,-0.024470,0.998869
500278.968750,5419130.000000,267.839996,0.8,0.8,0.8,-0.867805,-0.329417,0.372021
499670.093750,5419359.000000,283.230011,0.8,0.8,0.8,-0.062655,-0.652241,-0.755418
500163.062500,5419382.500000,264.959991,0.8,0.8,0.8,-0.543348,0.108846,-0.832421
500187.062500,5419349.500000,261.829987,0.8,0.8,0.8,0.146085,-0.777558,-0.611606
500441.281250,5419234.000000,256.519989,0.8,0.8,0.8,0.492781,0.790926,0.362772
500019.625000,5418808.000000,257.250000,0.8,0.8,0.8,-0.565978,0.762459,0.313568
499516.375000,5418608.500000,257.220001,0.8,0.8,0.8,0.738861,-0.247134,-0.626904
499581.312500,5418785.500000,249.369995,0.8,0.8,0.8,0.031699,-0.074117,0.996746
500005.750000,5418845.000000,244.199997,0.8,0.8,0.8,-0.007185,-0.006350,0.999954
500126.343750,5418803.000000,256.470001,0.8,0.8,0.8,-0.011424,0.013429,-0.999845
499481.281250,5418566.000000,245.580002,0.8,0.8,0.8,0.005745,0.007216,-0.999958
499945.531250,5419201.000000,253.919998,0.8,0.8,0.8,-0.026905,0.052883,-0.998238
499965.218750,5418633.500000,274.920013,0.8,0.8,0.8,0.514398,0.107179,0.850828
500138.281250,5419073.500000,245.410004,0.8,0.8,0.8,-0.025503,0.065190,-0.997547
500195.218750,5418341.500000,294.720001,0.8,0.8,0.8,0.073449,-0.030808,-0.996823
500078.218750,5418369.000000,286.850006,0.8,0.8,0.8,0.057216,-0.030348,-0.997900
499960.812500,5418921.500000,244.100006,0.8,0.8,0.8,0.031127,-0.007468,0.999488
499531.593750,5418918.500000,258.049988,0.8,0.8,0.8,0.061453,-0.073472,0.995402
500196.125000,5418487.000000,284.119995,0.8,0.8,0.8,0.075026,-0.087832,-0.993306
500073.343750,5419310.000000,268.660004,0.8,0.8,0.8,0.588195,-0.514492,-0.623959
499457.312500,5418725.000000,253.720001,0.8,0.8,0.8,-0.448940,0.084158,-0.889590
500065.062500,5418350.000000,286.959991,0.8,0.8,0.8,0.034027,-0.080646,-0.996162
499814.781250,5418644.500000,246.539993,0.8,0.8,0.8,0.112227,-0.044067,-0.992705
500357.812500,5419322.500000,251.710007,0.8,0.8,0.8,0.071550,0.073149,-0.994751
500089.875000,5418682.000000,272.019989,0.8,0.8,0.8,0.000839,-0.058820,-0.998268
499858.562500,5418863.000000,244.350006,0.8,0.8,0.8,0.045772,-0.043815,0.997991
500214.000000,5418919.500000,252.699997,0.8,0.8,0.8,0.899800,-0.427951,0.084960
499633.625000,5419193.500000,269.049988,0.8,0.8,0.8,0.065204,-0.026025,0.997533
499549.718750,5419209.000000,287.140015,0.8,0.8,0.8,0.734923,-0.325004,0.595198
500204.843750,5419310.000000,252.470001,0.8,0.8,0.8,-0.014821,0.078002,-0.996843
499873.375000,5419029.500000,287.279999,0.8,0.8,0.8,0.025166,-0.000708,-0.999683
499799.187500,5419347.000000,269.470001,0.8,0.8,0.8,0.014761,0.104278,-0.994439
500163.937500,5419001.500000,243.789993,0.8,0.8,0.8,-0.026258,0.006311,-0.999635
499480.906250,5419375.000000,305.019989,0.8,0.8,0.8,-0.086407,0.129792,-0.987769
500239.187500,5419074.500000,256.920013,0.8,0.8,0.8,-0.634125,-0.631669,0.445959
500542.125000,5418820.000000,258.019989,0.8,0.8,0.8,0.032499,-0.049946,-0.998223
499576.687500,5419114.500000,266.850006,0.8,0.8,0.8,0.040195,-0.075366,0.996346
499819.187500,5418564.500000,254.470001,0.8,0.8,0.8,-0.214222,-0.091921,-0.972450
499451.250000,5418990.000000,265.130005,0.8,0.8,0.8,0.039339,-0.068234,0.996893
499455.750000,5418557.500000,245.470001,0.8,0.8,0.8,-0.367988,0.667264,-0.647568
499730.468750,5419356.000000,272.429993,0.8,0.8,0.8,-0.077755,0.068791,-0.994596
499857.125000,5418997.000000,260.049988,0.8,0.8,0.8,0.166963,-0.150389,0.974426
499737.875000,5419056.000000,257.279999,0.8,0.8,0.8,0.070484,-0.039739,0.996721
500009.906250,5418631.500000,273.709991,0.8,0.8,0.8,0.079987,-0.034250,-0.996207
500505.062500,5419027.000000,243.850006,0.8,0.8,0.8,-0.000900,-0.026132,-0.999658
499849.906250,5418682.000000,245.940002,0.8,0.8,0.8,0.147907,-0.089943,-0.984903
499716.468750,5418822.000000,260.420013,0.8,0.8,0.8,0.108328,-0.576318,-0.810014
500091.718750,5419321.000000,256.690002,0.8,0.8,0.8,0.130658,-0.017337,-0.991276
500182.562500,5419238.000000,266.399994,0.8,0.8,0.8,0.271214,-0.675916,0.685260
499970.875000,5418767.500000,247.570007,0.8,0.8,0.8,-0.354455,0.759349,-0.545666
499968.687500,5418376.000000,283.630005,0.8,0.8,0.8,0.033805,-0.063385,-0.997416
500274.593750,5419283.500000,249.350006,0.8,0.8,0.8,-0.043711,0.046239,-0.997974
499873.125000,5418671.000000,246.990005,0.8,0.8,0.8,0.110608,0.267729,-0.957124
499639.000000,5419422.000000,299.510010,0.8,0.8,0.8,-0.050534,0.170122,-0.984126
500118.812500,5418547.500000,279.339996,0.8,0.8,0.8,0.021394,-0.039209,-0.999002
499536.750000,5418507.000000,249.550003,0.8,0.8,0.8,-0.315621,-0.371795,-0.873013
500461.750000,5419142.000000,244.119995,0.8,0.8,0.8,0.003202,0.005508,-0.999980
500388.687500,5418969.000000,246.320007,0.8,0.8,0.8,0.011529,-0.104773,-0.994429
500036.625000,5419288.000000,276.170013,0.8,0.8,0.8,-0.729058,0.591081,-0.345106
500380.687500,5419299.000000,249.649994,0.8,0.8,0.8,-0.005354,0.063863,-0.997944
499776.187500,5419061.000000,255.729996,0.8,0.8,0.8,0.023788,0.003346,0.999711
499527.437500,5418813.000000,252.889999,0.8,0.8,0.8,0.049872,-0.037766,0.998041
499823.968750,5418794.000000,244.610001,0.8,0.8,0.8,-0.067766,0.023244,0.997430
500185.093750,5418964.000000,243.380005,0.8,0.8,0.8,-0.128290,0.132399,-0.982859
499729.406250,5418711.000000,248.210007,0.8,0.8,0.8,-0.498286,0.116976,-0.859085
500287.531250,5419035.000000,244.229996,0.8,0.8,0.8,0.010508,0.015269,-0.999828
499887.000000,5418839.000000,244.270004,0.8,0.8,0.8,-0.060959,0.021166,0.997916
499458.625000,5419217.500000,289.179993,0.8,0.8,0.8,0.087919,-0.071321,0.993571
500436.125000,5418995.000000,245.110001,0.8,0.8,0.8,0.050823,-0.112977,-0.992297
500054.875000,5418988.500000,244.179993,0.8,0.8,0.8,-0.026313,0.016597,-0.999516
499791.937500,5418655.500000,243.050003,0.8,0.8,0.8,-0.010755,0.018803,-0.999765
500524.125000,5419086.500000,243.960007,0.8,0.8,0.8,-0.003173,-0.003011,-0.999991
499494.031250,5418832.000000,255.389999,0.8,0.8,0.8,0.040441,-0.010604,0.999126
499784.687500,5418905.000000,250.500000,0.8,0.8,0.8,-0.021133,-0.018935,0.999597
500117.531250,5419208.500000,271.540009,0.8,0.8,0.8,0.895679,0.207378,-0.393387
499584.500000,5418889.500000,255.630005,0.8,0.8,0.8,0.019560,-0.034671,0.999207
499657.031250,5419355.500000,283.329987,0.8,0.8,0.8,-0.170088,0.134587,-0.976195
499954.937500,5418760.000000,244.529999,0.8,0.8,0.8,0.058796,0.186147,-0.980761
500138.718750,5418823.000000,256.540009,0.8,0.8,0.8,-0.044477,0.028654,-0.998599
499933.375000,5419159.000000,252.500000,0.8,0.8,0.8,0.025610,0.036520,-0.999005
500110.437500,5419175.000000,249.330002,0.8,0.8,0.8,0.017251,0.042389,-0.998952
499729.187500,5419005.000000,255.839996,0.8,0.8,0.8,0.049129,-0.045860,0.997739
499778.125000,5419407.500000,275.160004,0.8,0.8,0.8,0.008432,0.094646,-0.995475
499510.656250,5418682.000000,245.229996,0.8,0.8,0.8,-0.143101,-0.070425,-0.987199
499612.093750,5418663.000000,245.589996,0.8,0.8,0.8,0.032342,-0.005894,-0.999460
499994.718750,5418651.500000,271.970001,0.8,0.8,0.8,0.054905,-0.039012,-0.997729
500307.312500,5419275.000000,248.830002,0.8,0.8,0.8,-0.015852,0.053697,-0.998431
499937.000000,5419312.000000,264.119995,0.8,0.8,0.8,-0.014588,0.068159,-0.997568
500375.062500,5418860.500000,256.160004,0.8,0.8,0.8,0.010587,-0.057837,-0.998270
499635.437500,5418492.500000,252.330002,0.8,0.8,0.8,0.429591,0.004986,-0.903010
499632.281250,5418662.000000,259.910004,0.8,0.8,0.8,-0.336407,-0.736830,0.586440
500361.468750,5419040.500000,244.089996,0.8,0.8,0.8,0.009575,0.002611,-0.999951
500019.531250,5418669.000000,273.160004,0.8,0.8,0.8,-0.018001,-0.005350,-0.999824
499600.625000,5418659.500000,245.529999,0.8,0.8,0.8,-0.184182,0.008870,-0.982852
499899.562500,5418504.000000,272.059998,0.8,0.8,0.8,0.096519,0.075565,-0.992459
499847.000000,5418810.000000,244.529999,0.8,0.8,0.8,-0.027369,0.041626,0.998758
499617.062500,5418682.000000,244.970001,0.8,0.8,0.8,-0.076373,-0.019521,-0.996888
499471.250000,5418871.000000,258.100006,0.8,0.8,0.8,0.042507,-0.058339,0.997391
500105.937500,5419164.500000,253.199997,0.8,0.8,0.8,0.070448,0.291297,0.954035
500169.187500,5418968.000000,258.410004,0.8,0.8,0.8,0.411701,0.607851,0.678984
499682.437500,5418656.000000,243.509995,0.8,0.8,0.8,0.056955,0.499600,-0.864382
499738.218750,5418488.500000,265.660004,0.8,0.8,0.8,-0.324144,0.579875,-0.747446
500296.781250,5419162.000000,245.089996,0.8,0.8,0.8,-0.002609,0.004482,-0.999987
500146.125000,5418997.000000,244.119995,0.8,0.8,0.8,-0.012877,-0.003952,-0.999909
500401.468750,5419098.500000,243.639999,0.8,0.8,0.8,-0.035962,-0.006906,-0.999329
500415.406250,5419378.500000,261.510010,0.8,0.8,0.8,-0.252738,0.738719,-0.624834
500204.875000,5419001.000000,242.470001,0.8,0.8,0.8,-0.013238,-0.005104,-0.999899
500363.125000,5419425.000000,276.350006,0.8,0.8,0.8,0.022552,0.621414,-0.783158
500058.593750,5418775.000000,268.500000,0.8,0.8,0.8,-0.392122,0.430003,0.813226
499802.812500,5418578.000000,249.660004,0.8,0.8,0.8,0.079451,-0.255735,-0.963477
499737.500000,5419145.000000,285.880005,0.8,0.8,0.8,-0.009261,0.004825,-0.999946
499923.937500,5418695.000000,246.070007,0.8,0.8,0.8,-0.037613,-0.041532,-0.998429
500147.187500,5419224.000000,252.139999,0.8,0.8,0.8,-0.015683,0.038938,-0.999119
500083.812500,5419220.000000,265.399994,0.8,0.8,0.8,-0.027599,-0.920243,0.390374
500109.187500,5418671.500000,272.809998,0.8,0.8,0.8,-0.029580,-0.100003,-0.994547
500168.812500,5418529.000000,280.910004,0.8,0.8,0.8,0.007054,-0.022788,-0.999715
499777.593750,5418779.500000,244.589996,0.8,0.8,0.8,0.028316,0.014998,0.999487
500048.343750,5419011.000000,244.979996,0.8,0.8,0.8,-0.034159,0.060004,-0.997613
500322.406250,5419427.000000,283.790009,0.8,0.8,0.8,-0.854153,-0.143272,0.499896
499714.781250,5419106.000000,260.600006,0.8,0.8,0.8,0.045547,-0.021429,0.998732
500293.625000,5419140.000000,271.820007,0.8,0.8,0.8,-0.337272,-0.293555,0.894468
499841.812500,5419199.500000,257.070007,0.8,0.8,0.8,-0.033798,0.033283,-0.998874
499810.031250,5418693.500000,244.429993,0.8,0.8,0.8,0.021919,-0.016026,-0.999631
499898.937500,5419043.500000,251.240005,0.8,0.8,0.8,-0.039601,0.033274,-0.998661
500437.468750,5419347.000000,251.639999,0.8,0.8,0.8,-0.046894,0.099018,-0.993980
499976.906250,5419176.000000,251.940002,0.8,0.8,0.8,-0.027178,0.039099,-0.998866
499459.812500,5418873.000000,258.790009,0.8,0.8,0.8,0.068437,-0.065021,0.995534
499814.187500,5418519.000000,268.459991,0.8,0.8,0.8,0.237331,-0.697821,-0.675811
499722.187500,5418434.000000,267.549988,0.8,0.8,0.8,0.037911,0.001099,-0.999281
499785.343750,5419185.500000,259.160004,0.8,0.8,0.8,-0.086699,-0.006684,-0.996212
500314.562500,5418956.000000,245.720001,0.8,0.8,0.8,-0.000572,-0.077459,-0.996995
499875.375000,5419109.000000,253.259995,0.8,0.8,0.8,-0.021443,0.006890,-0.999746
499846.437500,5419409.000000,275.130005,0.8,0.8,0.8,-0.054163,0.082088,-0.995152
500213.968750,5419240.000000,249.059998,0.8,0.8,0.8,0.046397,0.028320,-0.998522
499844.125000,5418474.000000,269.000000,0.8,0.8,0.8,0.081149,-0.010103,-0.996651
499708.843750,5418822.500000,248.080002,0.8,0.8,0.8,-0.067650,-0.058929,0.995967
499846.687500,5418959.500000,250.830002,0.8,0.8,0.8,0.018103,-0.015676,0.999713
499545.312500,5418793.000000,250.929993,0.8,0.8,0.8,0.005198,-0.108956,0.994033
500314.312500,5419362.000000,266.049988,0.8,0.8,0.8,-0.420480,-0.177412,-0.889788
500278.968750,5418803.500000,261.760010,0.8,0.8,0.8,-0.028003,-0.191554,-0.981083
499993.468750,5418795.500000,243.149994,0.8,0.8,0.8,0.212125,-0.268917,0.939514
500068.156250,5418645.000000,273.549988,0.8,0.8,0.8,0.019449,-0.055291,-0.998281
500307.687500,5419179.000000,245.179993,0.8,0.8,0.8,0.000240,0.028043,-0.999607
500036.125000,5418688.000000,271.829987,0.8,0.8,0.8,0.086382,-0.081409,-0.992930
500090.718750,5418864.000000,247.630005,0.8,0.8,0.8,0.601638,-0.619739,-0.503940
499604.031250,5418981.000000,258.769989,0.8,0.8,0.8,0.014702,0.027296,0.999519
499669.031250,5419333.000000,278.799988,0.8,0.8,0.8,-0.181101,0.005917,-0.983447
500429.906250,5419350.000000,252.179993,0.8,0.8,0.8,-0.042838,0.117027,-0.992204
500160.000000,5418861.000000,254.360001,0.8,0.8,0.8,0.460234,-0.367145,-0.808325
500043.031250,5419305.000000,262.859985,0.8,0.8,0.8,-0.442814,-0.863678,0.240782
499942.000000,5419176.500000,252.990005,0.8,0.8,0.8,-0.045175,0.031251,-0.998490
500034.187500,5419149.000000,249.639999,0.8,0.8,0.8,-0.003877,0.007215,-0.999966
499618.218750,5418479.500000,259.019989,0.8,0.8,0.8,-0.765055,0.478582,-0.430871
500221.062500,5418776.500000,266.769989,0.8,0.8,0.8,-0.020644,-0.106836,-0.994062
500079.687500,5418836.500000,290.070007,0.8,0.8,0.8,0.023025,0.005247,-0.999721
500128.125000,5418848.000000,266.640015,0.8,0.8,0.8,0.448093,0.076653,0.890695
500523.093750,5419195.000000,244.210007,0.8,0.8,0.8,0.045724,0.018228,-0.998788
500239.187500,5419278.500000,249.800003,0.8,0.8,0.8,-0.028899,0.030762,-0.999109
500053.875000,5419353.500000,261.200012,0.8,0.8,0.8,-0.111892,-0.053687,-0.992269
499768.093750,5418565.500000,250.919998,0.8,0.8,0.8,-0.067608,-0.073871,-0.994973
499817.781250,5419053.000000,254.139999,0.8,0.8,0.8,0.005378,-0.015363,0.999868
499939.437500,5418414.500000,281.450012,0.8,0.8,0.8,-0.005221,-0.046305,-0.998914
499807.906250,5418877.500000,248.110001,0.8,0.8,0.8,0.051699,-0.071588,0.996094
499770.156250,5418767.500000,248.649994,0.8,0.8,0.8,0.654536,0.727849,0.204495
499871.625000,5419210.000000,256.589996,0.8,0.8,0.8,-0.023327,0.071720,-0.997152
499654.375000,5418784.500000,247.899994,0.8,0.8,0.8,-0.581415,0.127276,0.803590
499974.156250,5419428.500000,268.450012,0.8,0.8,0.8,-0.068754,0.001600,-0.997632
499695.343750,5419233.500000,266.859985,0.8,0.8,0.8,-0.062625,0.066625,-0.995811
499595.687500,5419169.000000,269.609985,0.8,0.8,0.8,0.034656,-0.063001,0.997412
500482.718750,5419124.500000,244.039993,0.8,0.8,0.8,-0.014723,-0.003283,-0.999886
499899.031250,5419331.500000,266.540009,0.8,0.8,0.8,0.064837,0.083556,-0.994392
500124.656250,5419084.000000,246.080002,0.8,0.8,0.8,-0.014111,0.024656,-0.999596
500533.625000,5419210.500000,244.100006,0.8,0.8,0.8,-0.007140,0.008016,-0.999942
500324.312500,5419114.000000,243.729996,0.8,0.8,0.8,-0.006048,0.288864,-0.957351
499597.187500,5418565.500000,243.399994,0.8,0.8,0.8,0.079918,0.064575,-0.994708
499986.781250,5418397.000000,282.640015,0.8,0.8,0.8,0.018061,0.011083,-0.999775
500381.062500,5419288.500000,249.029999,0.8,0.8,0.8,-0.021287,0.058060,-0.998086
500401.750000,5419400.000000,270.429993,0.8,0.8,0.8,0.067856,-0.062304,-0.995748
499946.812500,5418562.000000,271.950012,0.8,0.8,0.8,-0.019854,-0.064872,-0.997696
499700.250000,5418701.500000,254.000000,0.8,0.8,0.8,-0.021546,-0.186833,0.982155
500212.281250,5419020.000000,242.429993,0.8,0.8,0.8,-0.002339,0.004267,-0.999988
500023.406250,5418567.000000,275.220001,0.8,0.8,0.8,0.019300,-0.016029,-0.999685
500226.406250,5418377.000000,292.640015,0.8,0.8,0.8,0.021012,-0.036144,-0.999126
500054.031250,5418450.500000,283.429993,0.8,0.8,0.8,0.106022,-0.003876,-0.994356
500174.500000,5419377.000000,263.869995,0.8,0.8,0.8,0.045638,0.164019,-0.985401
499474.781250,5418936.500000,260.690002,0.8,0.8,0.8,-0.067560,-0.112404,0.991363
499512.937500,5418730.000000,246.889999,0.8,0.8,0.8,0.012259,0.057399,-0.998276
499924.375000,5418833.000000,244.960007,0.8,0.8,0.8,0.021383,-0.003048,0.999767
500115.968750,5418884.500000,242.639999,0.8,0.8,0.8,-0.062312,0.075711,-0.995181
500190.062500,5418898.000000,253.639999,0.8,0.8,0.8,-0.353642,0.044739,0.934310
500207.187500,5418937.000000,269.519989,0.8,0.8,0.8,0.183906,-0.029707,0.982495
500151.000000,5419392.500000,279.459991,0.8,0.8,0.8,-0.319423,0.935183,-0.152974
499783.843750,5418924.000000,250.839996,0.8,0.8,0.8,0.038348,-0.017728,0.999107
500076.093750,5419048.000000,245.699997,0.8,0.8,0.8,-0.030682,0.025586,-0.999202
500253.906250,5418875.000000,254.229996,0.8,0.8,0.8,-0.001283,0.023256,-0.999729
499777.312500,5418384.500000,263.579987,0.8,0.8,0.8,-0.015135,-0.016894,-0.999743
499890.843750,5419048.000000,251.740005,0.8,0.8,0.8,-0.029385,0.009431,-0.999524
499786.468750,5418479.500000,265.450012,0.8,0.8,0.8,0.060813,0.016548,-0.998012
500342.125000,5419121.000000,243.979996,0.8,0.8,0.8,0.014217,-0.022441,-0.999647
500019.406250,5418637.500000,273.760010,0.8,0.8,0.8,0.016280,-0.009952,-0.999818
500026.937500,5419155.500000,249.699997,0.8,0.8,0.8,-0.022071,0.012246,-0.999681
499561.906250,5419396.000000,301.369995,0.8,0.8,0.8,-0.076949,0.158276,-0.984392
499467.843750,5419329.000000,300.570007,0.8,0.8,0.8,-0.096030,0.126983,-0.987245
499941.437500,5419424.500000,270.510010,0.8,0.8,0.8,-0.078913,0.006556,-0.996860
500431.468750,5418805.000000,259.410004,0.8,0.8,0.8,-0.004960,-0.080303,-0.996758
499659.593750,5419033.500000,259.970001,0.8,0.8,0.8,-0.012239,-0.069407,0.997513
499508.937500,5418665.500000,265.170013,0.8,0.8,0.8,-0.099007,-0.282059,0.954275
500150.343750,5418897.500000,242.559998,0.8,0.8,0.8,0.022846,0.009636,-0.999693
500150.906250,5419310.000000,265.869995,0.8,0.8,0.8,0.646550,-0.332158,-0.686764
499477.156250,5419081.500000,269.320007,0.8,0.8,0.8,0.071558,-0.100778,0.992332
499831.500000,5418336.000000,284.140015,0.8,0.8,0.8,0.066374,-0.039166,-0.997026
499518.093750,5419158.500000,274.440002,0.8,0.8,0.8,0.077318,-0.148681,0.985858
499895.781250,5418441.500000,279.500000,0.8,0.8,0.8,0.010509,-0.047318,-0.998825
499917.875000,5419423.500000,272.309998,0.8,0.8,0.8,-0.080032,0.013606,-0.996699
500126.062500,5418445.500000,284.500000,0.8,0.8,0.8,0.033857,-0.048614,-0.998244
499656.875000,5418339.000000,271.559998,0.8,0.8,0.8,0.130496,-0.041566,-0.990577
500049.843750,5419057.500000,246.759995,0.8,0.8,0.8,-0.030454,0.035409,-0.998909
499856.312500,5418414.000000,280.089996,0.8,0.8,0.8,-0.002039,-0.037155,-0.999307
