x,y,z,r,g,b,nx,ny,nz
494995,5.41984e+006,309.87,0.8,0.8,0.8,-0.0765525,0.451786,0.888836
494116,5.42073e+006,274.85,0.8,0.8,0.8,0.0610437,0.368559,-0.927598
494618,5.42073e+006,329.37,0.8,0.8,0.8,0.0348615,0.190004,-0.981164
494222,5.42091e+006,356.95,0.8,0.8,0.8,-0.000341659,0.143997,-0.989578
494725,5.42035e+006,280.4,0.8,0.8,0.8,0.288285,0.63707,-0.714866
493711,5.42017e+006,268.42,0.8,0.8,0.8,-0.18438,-0.370616,0.910301
494819,5.42074e+006,290.62,0.8,0.8,0.8,0.044974,-0.0616801,-0.997082
494114,5.41994e+006,293.09,0.8,0.8,0.8,-0.0206704,0.163458,0.986334
494174,5.42088e+006,353.58,0.8,0.8,0.8,-0.088391,0.0245448,-0.995783
494040,5.42085e+006,349.83,0.8,0.8,0.8,-0.0585877,0.395497,-0.916597
494985,5.41986e+006,320.79,0.8,0.8,0.8,0.666266,0.146339,0.731214
493712,5.42046e+006,280.36,0.8,0.8,0.8,-0.0950662,0.0416948,-0.994597
493680,5.42055e+006,303.82,0.8,0.8,0.8,-0.239994,0.238305,-0.941071
495243,5.4204e+006,290.72,0.8,0.8,0.8,0.0684951,0.0340301,-0.997071
494820,5.4209e+006,345.66,0.8,0.8,0.8,-0.0406845,0.0414394,-0.998312
494286,5.42022e+006,263.03,0.8,0.8,0.8,0.00660916,0.0782715,0.99691
493905,5.41981e+006,253.74,0.8,0.8,0.8,0.406094,0.0450182,0.912722
493911,5.42069e+006,287.98,0.8,0.8,0.8,-0.147763,0.335752,-0.930288
495207,5.42016e+006,251.25,0.8,0.8,0.8,0.00172349,-0.00726803,0.999972
494464,5.42017e+006,259.83,0.8,0.8,0.8,0.0332927,0.0208236,0.999229
493903,5.42e+006,254.65,0.8,0.8,0.8,0.167014,-0.154149,0.97383
495208,5.42048e+006,290.29,0.8,0.8,0.8,-0.0152471,0.097948,-0.995075
494421,5.42006e+006,294.67,0.8,0.8,0.8,0.134437,0.386263,0.912539
494033,5.42018e+006,253.13,0.8,0.8,0.8,0.124091,-0.0559259,0.990694
494535,5.41993e+006,318.53,0.8,0.8,0.8,0.392341,-0.0214897,0.919569
494233,5.42049e+006,255.79,0.8,0.8,0.8,-0.706753,0.18009,-0.684155
494921,5.42023e+006,255.93,0.8,0.8,0.8,0.00985895,-0.111279,0.99374
494047,5.41999e+006,265.2,0.8,0.8,0.8,-0.953897,-0.0471614,0.296404
494050,5.42041e+006,263.77,0.8,0.8,0.8,-0.692897,-0.707622,-0.138439
493789,5.42041e+006,267.41,0.8,0.8,0.8,-0.225901,-0.0506834,-0.972831
495215,5.42002e+006,262.74,0.8,0.8,0.8,0.686682,0.724716,0.0570565
494324,5.42024e+006,259.87,0.8,0.8,0.8,0.0226167,0.0680075,0.997428
494915,5.42069e+006,278.24,0.8,0.8,0.8,-0.0659456,0.0989154,-0.992908
493671,5.42015e+006,272.16,0.8,0.8,0.8,0.143728,-0.179765,0.973153
494988,5.41985e+006,324.61,0.8,0.8,0.8,-0.512071,0.548346,0.661135
495065,5.4201e+006,251.88,0.8,0.8,0.8,0.0012622,0.000975677,0.999999
494468,5.42024e+006,256.97,0.8,0.8,0.8,0.028018,0.0578723,0.997931
494788,5.42094e+006,348.05,0.8,0.8,0.8,-0.0533817,-0.00390802,-0.998567
493969,5.41995e+006,253.47,0.8,0.8,0.8,0.0211733,-0.00499729,0.999763
494152,5.41991e+006,289.12,0.8,0.8,0.8,0.0658577,0.126482,0.98978
495113,5.42019e+006,253,0.8,0.8,0.8,0.00561397,-0.024176,0.999692
495063,5.42009e+006,251.89,0.8,0.8,0.8,0.00134367,0.0110964,0.999938
494165,5.42012e+006,279.58,0.8,0.8,0.8,0.00663241,0.0811182,0.996682
494993,5.4199e+006,289.42,0.8,0.8,0.8,-0.157194,0.427865,0.890068
494505,5.42049e+006,262.95,0.8,0.8,0.8,0.780717,0.327227,-0.532357
494080,5.42089e+006,355.61,0.8,0.8,0.8,0.030725,0.110217,-0.993433
493694,5.41978e+006,253.84,0.8,0.8,0.8,-0.000644787,0.00722556,0.999974
494859,5.41998e+006,252.19,0.8,0.8,0.8,-0.0368926,0.070494,0.99683
494246,5.4201e+006,281.76,0.8,0.8,0.8,-0.0854397,0.183207,0.979355
494909,5.42058e+006,315.68,0.8,0.8,0.8,0.089504,-0.141567,-0.985874
494061,5.42018e+006,252.74,0.8,0.8,0.8,0.0164136,0.00106353,0.999865
493746,5.41992e+006,263.8,0.8,0.8,0.8,-0.0786378,0.0204584,0.996693
494705,5.41991e+006,278.71,0.8,0.8,0.8,0.0731544,0.583639,0.808711
494328,5.42091e+006,355.41,0.8,0.8,0.8,-0.0283697,0.139263,-0.989849
494955,5.42099e+006,337.24,0.8,0.8,0.8,-0.0784701,-0.067338,-0.99464
494848,5.42002e+006,252.24,0.8,0.8,0.8,-0.00195217,-0.00103236,0.999998
494081,5.42074e+006,281.62,0.8,0.8,0.8,-0.0848606,0.383081,-0.919809
494838,5.42e+006,252.15,0.8,0.8,0.8,0.00982725,-0.00403613,0.999944
494898,5.42012e+006,258.95,0.8,0.8,0.8,0.0515644,0.783673,0.61903
494297,5.42044e+006,253.22,0.8,0.8,0.8,-0.000610025,-0.0114667,-0.999934
493758,5.42034e+006,269.7,0.8,0.8,0.8,-0.23818,0.128782,-0.962645
493717,5.42023e+006,269.29,0.8,0.8,0.8,0.0643759,-0.096471,0.993252
493697,5.42007e+006,273.26,0.8,0.8,0.8,-0.274886,0.10944,0.955228
493869,5.4199e+006,253.2,0.8,0.8,0.8,0.0130344,-0.0123399,0.999839
494073,5.41995e+006,288.29,0.8,0.8,0.8,-0.647277,-0.018185,0.762038
494350,5.42042e+006,253.45,0.8,0.8,0.8,0.00292696,-9.52333e-005,-0.999996
494186,5.42019e+006,270.03,0.8,0.8,0.8,0.0168734,0.0907752,0.995728
494270,5.42041e+006,253.71,0.8,0.8,0.8,-0.00183741,-0.0180397,-0.999836
494371,5.41992e+006,296.91,0.8,0.8,0.8,-0.0297684,0.0631767,0.997558
494562,5.42025e+006,252.58,0.8,0.8,0.8,0.0271209,0.0232425,0.999362
494891,5.41985e+006,323.82,0.8,0.8,0.8,-0.353596,0.854769,0.379921
494660,5.41986e+006,311.73,0.8,0.8,0.8,0.198374,0.587929,0.784211
493804,5.42072e+006,338.39,0.8,0.8,0.8,-0.147755,0.25469,-0.955668
494903,5.41998e+006,252.01,0.8,0.8,0.8,0.00661378,-0.0210774,0.999756
494522,5.42067e+006,309.78,0.8,0.8,0.8,0.331017,0.370933,-0.867662
494745,5.42094e+006,349.55,0.8,0.8,0.8,-0.0348679,0.0100944,-0.999341
494735,5.42071e+006,294.45,0.8,0.8,0.8,-0.0904726,0.217576,-0.971841
494948,5.42098e+006,338.86,0.8,0.8,0.8,-0.0750141,-0.0439089,-0.996215
494789,5.42062e+006,269.04,0.8,0.8,0.8,0.0443378,0.297744,-0.953616
494778,5.41992e+006,268.73,0.8,0.8,0.8,-0.0775084,0.49958,0.862794
495245,5.42089e+006,320.19,0.8,0.8,0.8,-0.0777892,-0.0658936,-0.99479
494092,5.42093e+006,362.44,0.8,0.8,0.8,-0.0368624,0.131696,-0.990605
495069,5.42062e+006,313.12,0.8,0.8,0.8,0.0132327,-0.139311,-0.99016
494563,5.42099e+006,356.39,0.8,0.8,0.8,-0.0288656,-0.00353812,-0.999577
494747,5.42036e+006,274.28,0.8,0.8,0.8,-0.196372,-0.630857,-0.750638
495174,5.41999e+006,278.53,0.8,0.8,0.8,0.103731,0.287217,0.952232
494305,5.42066e+006,254.44,0.8,0.8,0.8,0.0468275,-0.0222056,-0.998656
494068,5.4199e+006,284.69,0.8,0.8,0.8,0.706061,0.281804,0.649664
494701,5.42089e+006,358.64,0.8,0.8,0.8,0.744112,0.104378,-0.659851
494609,5.42046e+006,268.12,0.8,0.8,0.8,-0.421184,0.193144,-0.886171
494485,5.4207e+006,313.6,0.8,0.8,0.8,0.257908,0.505391,-0.823446
494881,5.42093e+006,343.78,0.8,0.8,0.8,-0.0523495,-0.0179999,-0.998467
494050,5.41982e+006,277.58,0.8,0.8,0.8,0.384794,0.911902,-0.142716
493721,5.42091e+006,378.6,0.8,0.8,0.8,0.123065,0.494358,-0.860503
493812,5.42022e+006,264.91,0.8,0.8,0.8,-0.153556,0.0633194,0.986109
495087,5.41995e+006,291.64,0.8,0.8,0.8,-0.367529,0.92815,-0.0588193
494611,5.42054e+006,273.31,0.8,0.8,0.8,0.0402655,0.597889,-0.800567
494376,5.42095e+006,359.51,0.8,0.8,0.8,-0.0312062,0.0759949,-0.99662
494027,5.42086e+006,353.83,0.8,0.8,0.8,0.0186309,0.0861683,-0.996106
494485,5.421e+006,358.12,0.8,0.8,0.8,-0.0211368,-0.00230737,-0.999774
494147,5.42006e+006,295.95,0.8,0.8,0.8,-0.908179,-0.265616,0.32351
494323,5.42017e+006,264.98,0.8,0.8,0.8,0.0322685,0.0780789,0.996425
494613,5.42064e+006,314.18,0.8,0.8,0.8,0.0136058,-0.0425842,-0.999
493820,5.42093e+006,372.24,0.8,0.8,0.8,-0.0322587,0.0926877,-0.995173
494448,5.42096e+006,358.48,0.8,0.8,0.8,-0.0373626,0.0401583,-0.998495
494815,5.41989e+006,284.42,0.8,0.8,0.8,0.192283,0.754519,0.627478
494065,5.42068e+006,271.28,0.8,0.8,0.8,0.298212,0.519108,-0.800997
494857,5.42089e+006,344.04,0.8,0.8,0.8,-0.0414383,0.0270756,-0.998774
494462,5.42086e+006,365.89,0.8,0.8,0.8,-0.0377793,0.410002,-0.911302
494035,5.42041e+006,261.75,0.8,0.8,0.8,-0.0806914,0.884795,-0.458941
494775,5.42071e+006,291,0.8,0.8,0.8,-0.0210468,0.428717,-0.903194
494237,5.42011e+006,279.76,0.8,0.8,0.8,0.0757257,0.193097,0.978253
494444,5.42038e+006,252.99,0.8,0.8,0.8,-0.000407359,0.00333767,-0.999994
494680,5.42044e+006,266.98,0.8,0.8,0.8,-0.435582,0.851313,-0.292463
493960,5.4198e+006,253.45,0.8,0.8,0.8,-0.10044,0.00621788,0.994924
493691,5.42006e+006,268.08,0.8,0.8,0.8,0.104001,-0.0938258,0.990142
494049,5.42004e+006,252.89,0.8,0.8,0.8,-0.156454,0.100793,0.982529
493775,5.42e+006,267.01,0.8,0.8,0.8,0.365046,-0.172073,0.914949
494887,5.42054e+006,872.81,0.8,0.8,0.8,0.255986,0.934537,-0.247206
494698,5.42089e+006,349.83,0.8,0.8,0.8,0.22675,0.346239,-0.910331
495067,5.42056e+006,302.1,0.8,0.8,0.8,-0.0240712,0.222273,-0.974687
494093,5.42092e+006,360.11,0.8,0.8,0.8,-0.0592413,0.103506,-0.992863
494634,5.42072e+006,329.78,0.8,0.8,0.8,0.0107193,-0.0238349,-0.999658
494588,5.4202e+006,253.41,0.8,0.8,0.8,0.0576208,0.00789323,0.998307
493974,5.42072e+006,287.79,0.8,0.8,0.8,-0.123943,0.36661,-0.922082
493894,5.41992e+006,253.07,0.8,0.8,0.8,-0.0149626,-0.00719843,0.999862
494175,5.41997e+006,294.22,0.8,0.8,0.8,-0.972846,-0.230795,0.0174556
494901,5.42099e+006,341.39,0.8,0.8,0.8,-0.0558858,-0.04377,-0.997477
494744,5.41995e+006,291.3,0.8,0.8,0.8,0.637134,-0.0344164,0.769985
494907,5.41992e+006,264.71,0.8,0.8,0.8,-0.11003,0.542106,0.833075
494184,5.42007e+006,283.39,0.8,0.8,0.8,0.00357386,0.0631288,0.997999
494036,5.41984e+006,274.85,0.8,0.8,0.8,-0.482846,0.66983,0.564081
494367,5.42033e+006,254.85,0.8,0.8,0.8,-0.0254558,-0.0461048,-0.998612
494006,5.41985e+006,253.04,0.8,0.8,0.8,-0.000332724,0.000841249,1
493814,5.42033e+006,267.82,0.8,0.8,0.8,-0.262159,0.157834,-0.95203
494974,5.42007e+006,262.4,0.8,0.8,0.8,-0.632164,0.211005,0.745551
495016,5.42003e+006,250.67,0.8,0.8,0.8,-0.072437,-0.172927,0.982267
494810,5.42044e+006,281.85,0.8,0.8,0.8,-0.0133175,-0.0207526,-0.999696
495092,5.42095e+006,329.93,0.8,0.8,0.8,-0.0717474,-0.0270843,-0.997055
494033,5.42007e+006,253.53,0.8,0.8,0.8,0.0359294,-0.0130407,0.999269
495007,5.42039e+006,283.91,0.8,0.8,0.8,-0.0174328,0.0694727,-0.997432
493839,5.42016e+006,261.69,0.8,0.8,0.8,0.0801505,-0.00956914,0.996737
494357,5.41997e+006,293.27,0.8,0.8,0.8,0.042143,0.218596,0.974905
494187,5.42003e+006,286.08,0.8,0.8,0.8,0.00580585,0.0427895,0.999067
494284,5.41996e+006,292.15,0.8,0.8,0.8,-0.0466025,0.0521022,0.997554
494952,5.42001e+006,252.43,0.8,0.8,0.8,0.157604,-0.0554962,0.985942
494807,5.42078e+006,289.59,0.8,0.8,0.8,0.00195817,-0.0210398,-0.999777
494333,5.42003e+006,288,0.8,0.8,0.8,0.00731044,0.0987875,0.995082
494082,5.42042e+006,251.22,0.8,0.8,0.8,-0.0989424,-0.0725328,-0.992446
494339,5.42094e+006,359.33,0.8,0.8,0.8,-0.0415057,0.103208,-0.993793
494230,5.42005e+006,285.05,0.8,0.8,0.8,-0.0252699,0.0611611,0.997808
494901,5.42021e+006,262.07,0.8,0.8,0.8,0.0837713,0.368843,0.925709
494857,5.41992e+006,293.28,0.8,0.8,0.8,0.165116,0.0366506,0.985593
494641,5.41987e+006,328.9,0.8,0.8,0.8,-0.343492,0.351872,0.870746
494047,5.42009e+006,252.98,0.8,0.8,0.8,0.0192692,0.00573284,0.999798
494354,5.42092e+006,356.32,0.8,0.8,0.8,-0.0321156,0.159824,-0.986623
494429,5.42038e+006,252.99,0.8,0.8,0.8,-0.00265853,-0.00574123,-0.99998
494425,5.42014e+006,263.29,0.8,0.8,0.8,0.0480339,0.03476,0.998241
495150,5.42027e+006,256.64,0.8,0.8,0.8,0.0313302,-0.266724,0.963264
493926,5.42011e+006,255.64,0.8,0.8,0.8,0.0180159,0.0148185,0.999728
494994,5.41991e+006,282.68,0.8,0.8,0.8,0.299064,-0.0616688,0.952238
494552,5.42025e+006,253.12,0.8,0.8,0.8,0.0405511,0.0362628,0.998519
494040,5.42073e+006,281.55,0.8,0.8,0.8,-0.182574,0.317499,-0.930517
494506,5.42017e+006,258.35,0.8,0.8,0.8,0.0494044,0.0383578,0.998042
494480,5.42006e+006,289.96,0.8,0.8,0.8,0.163899,0.706874,0.688089
494715,5.42043e+006,260.66,0.8,0.8,0.8,0.113581,-0.0830538,-0.990051
494099,5.42005e+006,293.67,0.8,0.8,0.8,-0.00429408,-0.549084,0.835756
494140,5.42046e+006,251.13,0.8,0.8,0.8,0.0185945,-0.112345,-0.993495
494015,5.41991e+006,257.39,0.8,0.8,0.8,-0.0799112,-0.374411,0.923813
494318,5.42097e+006,362.12,0.8,0.8,0.8,-0.0148628,0.0503193,-0.998623
494501,5.42002e+006,267.16,0.8,0.8,0.8,0.101568,0.326378,0.939767
494134,5.42007e+006,294.07,0.8,0.8,0.8,-0.835624,-0.0963246,0.54079
494560,5.42002e+006,261.33,0.8,0.8,0.8,0.185835,0.355319,0.916086
494402,5.42067e+006,263.08,0.8,0.8,0.8,0.284205,0.446582,-0.848406
494612,5.41984e+006,328.88,0.8,0.8,0.8,0.803811,-0.0382265,0.593656
493770,5.42037e+006,264.46,0.8,0.8,0.8,-0.310215,0.0515587,-0.949267
493973,5.42012e+006,264.82,0.8,0.8,0.8,-0.836304,0.321938,-0.443791
494713,5.42034e+006,272.65,0.8,0.8,0.8,0.577181,0.303769,-0.758015
495020,5.41989e+006,315.79,0.8,0.8,0.8,-0.262475,0.747466,0.610247
493746,5.42088e+006,379.5,0.8,0.8,0.8,-0.0486538,0.0628162,-0.996839
494233,5.42009e+006,282.57,0.8,0.8,0.8,-0.0297356,0.0662059,0.997363
495110,5.42033e+006,274.37,0.8,0.8,0.8,0.112258,0.637794,-0.761983
494356,5.41988e+006,298,0.8,0.8,0.8,-0.161417,0.444678,0.881026
493972,5.42061e+006,260.92,0.8,0.8,0.8,-0.092286,-0.107066,-0.98996
494406,5.42003e+006,297.47,0.8,0.8,0.8,-0.436515,0.863198,0.253659
493676,5.42017e+006,272.6,0.8,0.8,0.8,0.278258,0.567109,0.775216
494208,5.41987e+006,292.66,0.8,0.8,0.8,-0.00623012,-0.0671743,0.997722
494013,5.4204e+006,253.37,0.8,0.8,0.8,0.0276142,0.0128166,-0.999537
494418,5.42067e+006,269.29,0.8,0.8,0.8,0.334174,0.540222,-0.772326
494641,5.42038e+006,254.56,0.8,0.8,0.8,0.0151902,0.0137318,-0.99979
494869,5.42053e+006,295.7,0.8,0.8,0.8,0.263584,0.262472,-0.928242
494481,5.42087e+006,357.58,0.8,0.8,0.8,0.244345,-0.546253,-0.801189
494523,5.42098e+006,357.2,0.8,0.8,0.8,-0.0129511,0.0215474,-0.999684
495160,5.42093e+006,325.43,0.8,0.8,0.8,-0.0722384,-0.0341647,-0.996802
494700,5.4207e+006,305.69,0.8,0.8,0.8,-0.525265,0.350089,-0.775587
493748,5.41992e+006,268.11,0.8,0.8,0.8,0.0493749,-0.00996439,0.998731
494243,5.4198e+006,293.91,0.8,0.8,0.8,-0.058772,-0.01829,0.998104
494506,5.42068e+006,310.17,0.8,0.8,0.8,0.305782,0.460686,-0.833226
493990,5.42005e+006,252.99,0.8,0.8,0.8,0.101776,-0.0517124,0.993462
494275,5.41988e+006,294.62,0.8,0.8,0.8,-0.00146182,0.0580796,0.998311
494553,5.41994e+006,314.22,0.8,0.8,0.8,-0.393536,-0.305069,0.867216
494278,5.41986e+006,296.25,0.8,0.8,0.8,-0.00593045,0.0182365,0.999816
494474,5.4207e+006,311.53,0.8,0.8,0.8,0.30436,0.479986,-0.822787
494565,5.42053e+006,273.12,0.8,0.8,0.8,0.508982,0.215217,-0.833438
494391,5.42063e+006,265.38,0.8,0.8,0.8,0.514014,0.321171,-0.795386
494831,5.41984e+006,334.24,0.8,0.8,0.8,0.199813,0.0720289,0.977183
494375,5.42011e+006,279.45,0.8,0.8,0.8,-0.187153,0.86958,0.456951
494759,5.42071e+006,292.19,0.8,0.8,0.8,-0.0513583,0.506621,-0.860638
494670,5.42033e+006,251.49,0.8,0.8,0.8,-0.318776,-0.00834524,-0.947794
494960,5.41982e+006,315.31,0.8,0.8,0.8,0.40016,0.615015,0.679433
493655,5.42094e+006,375.92,0.8,0.8,0.8,0.876618,-0.464963,-0.123898
494235,5.42007e+006,283.71,0.8,0.8,0.8,-0.018017,0.0589411,0.998099
493708,5.42004e+006,268.9,0.8,0.8,0.8,0.0532578,0.168943,0.984186
494476,5.42038e+006,252.3,0.8,0.8,0.8,-0.0269277,-0.0236196,-0.999358
494079,5.42098e+006,370.5,0.8,0.8,0.8,-0.119186,0.00169853,-0.992871
495189,5.41987e+006,331.42,0.8,0.8,0.8,0.0820532,-0.643281,0.76122
494688,5.42042e+006,257.7,0.8,0.8,0.8,0.254267,-0.101013,-0.961844
494998,5.41985e+006,327.75,0.8,0.8,0.8,0.335499,0.372815,0.86513
493988,5.4202e+006,258.59,0.8,0.8,0.8,-0.519873,-0.260514,0.813551
493850,5.42004e+006,259.26,0.8,0.8,0.8,-0.050237,-0.0479433,0.997586
494523,5.41996e+006,311.84,0.8,0.8,0.8,-0.267612,0.164395,0.949399
494950,5.41983e+006,316.24,0.8,0.8,0.8,0.206107,0.520743,-0.828461
494642,5.42023e+006,252.03,0.8,0.8,0.8,0.0117936,0.00587157,0.999913
494349,5.42001e+006,290.27,0.8,0.8,0.8,-0.00894472,0.106889,0.994231
494017,5.41982e+006,263.57,0.8,0.8,0.8,0.0606656,0.560983,0.825601
494570,5.42022e+006,252.83,0.8,0.8,0.8,0.0318636,0.0294099,0.999059
494313,5.42045e+006,253.1,0.8,0.8,0.8,-0.00553777,-0.0198081,-0.999788
494405,5.4206e+006,251.09,0.8,0.8,0.8,-0.0224088,-0.0782763,-0.99668
494214,5.42086e+006,344.33,0.8,0.8,0.8,0.0104967,0.402243,-0.915473
494855,5.42061e+006,260.52,0.8,0.8,0.8,-0.105509,-0.118905,-0.987284
494455,5.42031e+006,253.93,0.8,0.8,0.8,-0.0199794,-0.0354597,-0.999171
494242,5.42094e+006,360.9,0.8,0.8,0.8,-0.0436289,0.0591574,-0.997295
494635,5.42038e+006,259.61,0.8,0.8,0.8,-0.468164,-0.838248,-0.279577
494373,5.4201e+006,295.22,0.8,0.8,0.8,-0.106179,0.632015,0.767648
493827,5.42091e+006,368.54,0.8,0.8,0.8,-0.0395383,0.135762,-0.989952
495021,5.42094e+006,335.1,0.8,0.8,0.8,-0.0802451,-0.026622,-0.99642
494595,5.41988e+006,319.99,0.8,0.8,0.8,0.785905,0.456081,-0.417544
493862,5.4206e+006,272.62,0.8,0.8,0.8,-0.133585,0.420204,-0.897543
493777,5.42036e+006,265.24,0.8,0.8,0.8,0.0702723,-0.323407,-0.943647
494171,5.4203e+006,259.84,0.8,0.8,0.8,0.191634,-0.299074,-0.93479
494117,5.42069e+006,268.63,0.8,0.8,0.8,0.74386,-0.188951,-0.641069
494316,5.42018e+006,264.45,0.8,0.8,0.8,0.0342979,0.060595,0.997573
493672,5.42095e+006,389.23,0.8,0.8,0.8,0.301681,0.363292,-0.881481
494461,5.42017e+006,260.09,0.8,0.8,0.8,0.0412798,0.0272152,0.998777
493789,5.4209e+006,372.61,0.8,0.8,0.8,-0.594955,-0.19534,-0.779661
494837,5.42006e+006,252.46,0.8,0.8,0.8,-0.129935,0.0205016,0.99131
494213,5.42004e+006,285.28,0.8,0.8,0.8,-0.0124966,0.0563167,0.998335
493967,5.4198e+006,267.93,0.8,0.8,0.8,0.947282,-0.128814,-0.293365
494316,5.42008e+006,282.38,0.8,0.8,0.8,0.0797144,0.309656,0.947501
494042,5.42091e+006,359.83,0.8,0.8,0.8,-0.0306108,0.163821,-0.986015
494832,5.4199e+006,283.58,0.8,0.8,0.8,0.0667666,0.740526,0.668703
493740,5.41998e+006,270.22,0.8,0.8,0.8,0.0349105,-0.548843,0.835197
494694,5.41995e+006,261.72,0.8,0.8,0.8,0.176516,0.356887,0.917319
493740,5.42057e+006,292.27,0.8,0.8,0.8,-0.201872,0.25576,-0.945428
494012,5.42096e+006,369.01,0.8,0.8,0.8,-0.049727,0.078946,-0.995638
494602,5.42049e+006,257.61,0.8,0.8,0.8,-0.524046,0.145233,-0.839216
494166,5.42005e+006,284.83,0.8,0.8,0.8,-0.000974838,0.0555482,0.998456
494900,5.41985e+006,299.6,0.8,0.8,0.8,-0.0212694,0.665298,0.746275
494880,5.41988e+006,317.63,0.8,0.8,0.8,0.150813,0.207902,0.966453
493987,5.42056e+006,256.98,0.8,0.8,0.8,-0.133223,0.341832,-0.93027
495074,5.41993e+006,304.26,0.8,0.8,0.8,-0.0494299,0.64664,0.761192
493879,5.42015e+006,258.65,0.8,0.8,0.8,0.202312,0.0308454,0.978835
494594,5.42011e+006,255.84,0.8,0.8,0.8,0.0475068,0.0349877,0.998258
493844,5.42058e+006,273.48,0.8,0.8,0.8,-0.249293,0.0653732,-0.966219
494604,5.42098e+006,354.78,0.8,0.8,0.8,-0.0346571,-0.000982703,-0.999399
494422,5.42071e+006,298.97,0.8,0.8,0.8,0.358709,0.506517,-0.784071
494295,5.42001e+006,289.88,0.8,0.8,0.8,-0.0468237,0.0554587,0.997362
493676,5.41999e+006,266.72,0.8,0.8,0.8,0.0442673,0.15697,0.986611
494061,5.41983e+006,288.49,0.8,0.8,0.8,-0.412334,0.190235,0.89095
494560,5.42007e+006,259.08,0.8,0.8,0.8,0.0552808,0.0453608,0.99744
494062,5.42024e+006,252.74,0.8,0.8,0.8,0.00408816,-0.0037916,0.999984
494809,5.42003e+006,252.1,0.8,0.8,0.8,0.00867747,0.00467858,0.999951
495247,5.42017e+006,251.29,0.8,0.8,0.8,-0.0033828,0.000295893,0.999994
493676,5.42097e+006,381.36,0.8,0.8,0.8,-0.423617,0.81774,-0.38968
495111,5.42055e+006,893.38,0.8,0.8,0.8,0.400502,0.37369,0.836632
493758,5.42016e+006,266.17,0.8,0.8,0.8,0.0346239,0.167656,0.985237
495235,5.42001e+006,272.85,0.8,0.8,0.8,-0.569292,0.796965,-0.201875
494553,5.42015e+006,256.45,0.8,0.8,0.8,0.0801506,0.00942763,0.996738
494640,5.41999e+006,258.68,0.8,0.8,0.8,0.0366776,0.321276,0.946275
493868,5.42045e+006,261.18,0.8,0.8,0.8,-0.255876,-0.302412,-0.918191
494180,5.42036e+006,254.48,0.8,0.8,0.8,0.0516427,-0.0596388,-0.996883
493980,5.42017e+006,254.24,0.8,0.8,0.8,0.0308173,-0.103718,0.994129
495127,5.42012e+006,251.63,0.8,0.8,0.8,0.00244592,0.00933692,0.999953
494379,5.42033e+006,254.42,0.8,0.8,0.8,-0.0563779,0.210821,-0.975898
494473,5.42087e+006,354.77,0.8,0.8,0.8,-0.00986603,-0.0514844,-0.998625
494491,5.42099e+006,358.11,0.8,0.8,0.8,-0.017463,0.016271,-0.999715
494150,5.42092e+006,359.3,0.8,0.8,0.8,-0.0279101,0.131637,-0.990905
494894,5.41987e+006,317.19,0.8,0.8,0.8,0.530844,-0.0834366,0.843352
494594,5.41994e+006,312.45,0.8,0.8,0.8,0.0694119,0.30089,0.95113
493971,5.42031e+006,255.14,0.8,0.8,0.8,0.331991,0.341793,-0.879181
493794,5.42095e+006,373.45,0.8,0.8,0.8,0.191504,0.158297,-0.968642
493865,5.42022e+006,274.65,0.8,0.8,0.8,-0.590578,0.43197,0.68163
493760,5.42097e+006,383.47,0.8,0.8,0.8,-0.500877,-0.719141,-0.48162
495099,5.42048e+006,291.29,0.8,0.8,0.8,-0.0101876,0.100756,-0.994859
494140,5.42041e+006,266.39,0.8,0.8,0.8,-0.121836,0.195705,-0.973065
494868,5.42016e+006,252.03,0.8,0.8,0.8,-0.392121,-0.364473,0.844631
494563,5.42022e+006,253.35,0.8,0.8,0.8,0.0416599,0.0312894,0.998642
494784,5.42025e+006,255.24,0.8,0.8,0.8,-0.102164,-0.0761004,0.991852
494311,5.42067e+006,259.29,0.8,0.8,0.8,-0.294509,0.128158,-0.947017
494438,5.42092e+006,362.81,0.8,0.8,0.8,0.618224,0.352592,-0.70248
493668,5.41997e+006,270.22,0.8,0.8,0.8,0.303004,-0.372354,0.877235
493829,5.42055e+006,276.38,0.8,0.8,0.8,0.0942125,-0.427121,-0.899273
494241,5.42024e+006,263.52,0.8,0.8,0.8,0.100254,0.127715,0.986731
493786,5.42094e+006,376.71,0.8,0.8,0.8,0.357104,-0.875049,-0.32675
494396,5.42051e+006,252.75,0.8,0.8,0.8,-0.00226367,-0.00412166,-0.999989
493908,5.42031e+006,266.98,0.8,0.8,0.8,-0.126334,0.505284,-0.853656
495071,5.42095e+006,331.52,0.8,0.8,0.8,-0.0735145,-0.0268319,-0.996933
493892,5.42021e+006,261.93,0.8,0.8,0.8,0.289006,-0.444543,0.847854
494778,5.42068e+006,281.04,0.8,0.8,0.8,-0.0141293,0.38464,-0.922959
493782,5.42046e+006,270.85,0.8,0.8,0.8,0.672618,0.611501,-0.416715
493713,5.4199e+006,262.51,0.8,0.8,0.8,-0.112251,-0.125233,0.985757
494547,5.42052e+006,254.87,0.8,0.8,0.8,0.295935,0.103589,-0.949574
494576,5.41994e+006,314.03,0.8,0.8,0.8,0.603949,0.162808,0.780217
494823,5.42036e+006,277.73,0.8,0.8,0.8,0.0814801,0.00384377,-0.996668
494962,5.42025e+006,257.68,0.8,0.8,0.8,-0.142241,-0.403521,0.903846
494272,5.42097e+006,362.56,0.8,0.8,0.8,-0.0190567,0.0731796,-0.997137
494382,5.42072e+006,287.06,0.8,0.8,0.8,0.35288,0.564854,-0.745933
494396,5.4202e+006,261.68,0.8,0.8,0.8,0.0428356,0.0664451,0.99687
494890,5.42025e+006,257.71,0.8,0.8,0.8,-0.105304,-0.290349,0.951109
493706,5.42097e+006,373.71,0.8,0.8,0.8,-0.36838,0.0146696,-0.92956
494510,5.41995e+006,303.21,0.8,0.8,0.8,0.864175,-0.266363,0.426911
494901,5.41994e+006,290.03,0.8,0.8,0.8,0.217533,0.226255,0.949467
494064,5.42097e+006,367.24,0.8,0.8,0.8,-0.00206738,0.0915517,-0.995798
494921,5.42057e+006,314.81,0.8,0.8,0.8,-0.09676,0.204472,-0.974078
494508,5.42054e+006,257.87,0.8,0.8,0.8,-0.843729,0.125537,-0.521883
494669,5.41995e+006,296.61,0.8,0.8,0.8,-0.0411641,0.607255,0.79344
494246,5.42004e+006,286.2,0.8,0.8,0.8,-0.0299157,0.0566079,0.997948
494368,5.42094e+006,358.9,0.8,0.8,0.8,-0.0168778,0.095053,-0.995329
493698,5.42086e+006,372.46,0.8,0.8,0.8,0.389999,0.818807,-0.421256
494487,5.42e+006,297.21,0.8,0.8,0.8,0.401947,-0.241482,0.883247
495019,5.42087e+006,335.03,0.8,0.8,0.8,-0.0503904,0.0487999,-0.997537
495248,5.42069e+006,315.23,0.8,0.8,0.8,-0.0777177,0.0287201,-0.996562
493765,5.42041e+006,267.98,0.8,0.8,0.8,0.269888,0.170944,-0.947596
494680,5.42089e+006,350.33,0.8,0.8,0.8,-0.0390351,-0.0108956,-0.999178
493850,5.42036e+006,262.82,0.8,0.8,0.8,0.594255,-0.412675,-0.690334
494589,5.42046e+006,255.01,0.8,0.8,0.8,0.191786,0.337899,-0.921435
494042,5.42038e+006,262.42,0.8,0.8,0.8,0.837524,-0.407082,-0.36447
493981,5.42065e+006,268.09,0.8,0.8,0.8,-0.142019,0.228431,-0.963146
495105,5.41998e+006,255.63,0.8,0.8,0.8,-0.116737,0.955513,0.270866
493661,5.42095e+006,370.94,0.8,0.8,0.8,0.0994157,-0.252478,-0.962482
495141,5.42063e+006,314.3,0.8,0.8,0.8,-0.0711054,0.11024,-0.991358
494142,5.421e+006,367.09,0.8,0.8,0.8,-0.152953,-0.147513,-0.977162
494986,5.41999e+006,252.13,0.8,0.8,0.8,-0.00600793,-0.0224728,0.999729
494165,5.42039e+006,254.43,0.8,0.8,0.8,0.354913,0.0572885,-0.933143
494603,5.42036e+006,253.27,0.8,0.8,0.8,0.27679,0.172681,-0.945288
493742,5.41981e+006,253.8,0.8,0.8,0.8,0.00434098,-0.0128917,0.999907
494509,5.42073e+006,338.19,0.8,0.8,0.8,0.049508,0.151053,-0.987285
494712,5.42025e+006,262.63,0.8,0.8,0.8,0.499234,0.754974,0.425182
495177,5.42009e+006,251.83,0.8,0.8,0.8,0.000129749,0.00859809,0.999963
495127,5.42046e+006,288.92,0.8,0.8,0.8,-0.00175795,0.106226,-0.99434
494387,5.42004e+006,284.9,0.8,0.8,0.8,-0.0858348,-0.293788,0.952009
493971,5.42059e+006,259.3,0.8,0.8,0.8,-0.108712,-0.000135811,-0.994073
494142,5.42003e+006,284.59,0.8,0.8,0.8,-0.114766,0.111747,0.987087
494093,5.41985e+006,296.66,0.8,0.8,0.8,0.407126,0.162463,0.898807
494801,5.41998e+006,274.13,0.8,0.8,0.8,0.130779,0.707974,0.694024
494239,5.42061e+006,253.06,0.8,0.8,0.8,-0.196257,-0.296787,-0.934559
494000,5.4206e+006,264.62,0.8,0.8,0.8,0.595425,-0.0744841,-0.799951
494717,5.41987e+006,300.78,0.8,0.8,0.8,0.881317,-0.253685,0.398654
494358,5.4205e+006,252.69,0.8,0.8,0.8,-0.00385814,0.00623982,-0.999973
494595,5.41985e+006,324.38,0.8,0.8,0.8,0.559033,-0.376652,0.738658
495242,5.42035e+006,268.38,0.8,0.8,0.8,-0.100977,0.340005,-0.934987
494809,5.42086e+006,344.26,0.8,0.8,0.8,-0.051259,0.0359273,-0.998039
494201,5.42019e+006,268.94,0.8,0.8,0.8,0.0682492,0.0855385,0.993995
493950,5.42052e+006,265.97,0.8,0.8,0.8,-0.300696,0.449882,-0.840945
494524,5.4202e+006,256.37,0.8,0.8,0.8,0.0658115,0.0439282,0.996865
493987,5.42044e+006,265.7,0.8,0.8,0.8,0.00701982,0.120679,-0.992667
494090,5.42046e+006,255.23,0.8,0.8,0.8,0.103872,-0.258358,-0.960449
494205,5.41995e+006,289.91,0.8,0.8,0.8,-0.00528376,0.973244,0.229715
493893,5.42038e+006,262.88,0.8,0.8,0.8,0.207749,-0.127581,-0.969827
494820,5.42086e+006,343.65,0.8,0.8,0.8,-0.0428712,0.045062,-0.998064
493809,5.42089e+006,367.48,0.8,0.8,0.8,-0.0741886,0.167983,-0.982994
494446,5.42075e+006,332.08,0.8,0.8,0.8,0.281827,0.539644,-0.793321
494520,5.42006e+006,261.62,0.8,0.8,0.8,0.0441001,0.0438144,0.998066
495174,5.42095e+006,322.83,0.8,0.8,0.8,-0.0759269,-0.0354115,-0.996484
494750,5.42086e+006,353.64,0.8,0.8,0.8,-0.350496,0.0387958,-0.93576
493962,5.42058e+006,261.61,0.8,0.8,0.8,-0.578804,-0.0279865,-0.814986
493914,5.42065e+006,275.95,0.8,0.8,0.8,-0.0140844,0.246321,-0.969086
494828,5.42051e+006,294.64,0.8,0.8,0.8,0.210325,0.0565768,-0.975993
495173,5.42e+006,250.66,0.8,0.8,0.8,-0.0642119,0.29072,0.954651
494194,5.4207e+006,257.63,0.8,0.8,0.8,-0.0567773,0.0299396,-0.997938
493766,5.42039e+006,265.76,0.8,0.8,0.8,-0.233303,-0.222203,-0.946676
494600,5.42085e+006,351.86,0.8,0.8,0.8,-0.00807275,0.0317592,-0.999463
494069,5.41992e+006,272.54,0.8,0.8,0.8,-0.534317,-0.46092,0.70856
494418,5.42058e+006,257.28,0.8,0.8,0.8,0.283559,0.575561,-0.767022
494161,5.42052e+006,254.82,0.8,0.8,0.8,-0.0962386,0.126598,-0.987275
494268,5.42001e+006,288.54,0.8,0.8,0.8,-0.047003,0.0509119,0.997597
494607,5.42046e+006,274.32,0.8,0.8,0.8,-0.421184,0.193144,-0.886171
495034,5.42003e+006,256.43,0.8,0.8,0.8,-0.190807,-0.34465,0.919135
494302,5.42086e+006,345.98,0.8,0.8,0.8,-0.0339474,0.321774,-0.946208
493888,5.42032e+006,268.22,0.8,0.8,0.8,0.100812,0.712252,-0.694646
494570,5.42026e+006,252.22,0.8,0.8,0.8,0.0289192,0.0221028,0.999337
494366,5.41989e+006,301.35,0.8,0.8,0.8,-0.370657,0.0905244,0.924348
493831,5.42052e+006,267.41,0.8,0.8,0.8,-0.318658,-0.170302,-0.932445
494022,5.42038e+006,253.46,0.8,0.8,0.8,-0.0217538,-0.0228133,-0.999503
493983,5.42014e+006,275.5,0.8,0.8,0.8,-0.644706,0.741591,0.185465
494606,5.42014e+006,254.31,0.8,0.8,0.8,0.0343738,0.0149997,0.999297
494351,5.42097e+006,361.76,0.8,0.8,0.8,-0.0360564,0.00924961,-0.999307
494933,5.42077e+006,303.98,0.8,0.8,0.8,0.45547,0.890147,0.01361
493868,5.42044e+006,265.65,0.8,0.8,0.8,-0.366876,-0.218252,-0.904305
494222,5.42042e+006,253.43,0.8,0.8,0.8,-0.072233,-0.119137,-0.990247
495170,5.42014e+006,251.4,0.8,0.8,0.8,0.00298534,0.00956736,0.99995
494605,5.41998e+006,270.92,0.8,0.8,0.8,0.137608,-0.763385,0.631116
493667,5.42044e+006,285.87,0.8,0.8,0.8,-0.208133,0.15575,-0.96562
495080,5.4204e+006,284.15,0.8,0.8,0.8,-0.00108959,0.0844202,-0.99643
493786,5.42044e+006,273.1,0.8,0.8,0.8,-0.253992,-0.883175,-0.394323
494306,5.42063e+006,276.93,0.8,0.8,0.8,0.421564,-0.524216,-0.73992
494151,5.42021e+006,269.38,0.8,0.8,0.8,0.022763,0.081536,0.99641
494551,5.42043e+006,264.4,0.8,0.8,0.8,-0.705767,0.123541,-0.697589
495193,5.42028e+006,256.28,0.8,0.8,0.8,0.000385687,0.0841573,0.996452
494975,5.42036e+006,288.1,0.8,0.8,0.8,0.0316342,-0.186394,-0.981966
494842,5.42091e+006,345.28,0.8,0.8,0.8,-0.0343108,0.0228891,-0.999149
494477,5.42061e+006,262.38,0.8,0.8,0.8,0.351818,0.45125,-0.820121
495212,5.42026e+006,253.95,0.8,0.8,0.8,0.0177999,-0.0451035,0.998824
494782,5.42091e+006,347.65,0.8,0.8,0.8,-0.0373225,0.0226829,-0.999046
494223,5.42071e+006,258.66,0.8,0.8,0.8,-0.00950733,0.262954,-0.964761
494199,5.41989e+006,298.48,0.8,0.8,0.8,-0.155879,0.0453963,0.986732
493786,5.41981e+006,253.5,0.8,0.8,0.8,-0.193609,0.397441,0.89697
494267,5.42032e+006,262.91,0.8,0.8,0.8,0.229163,-0.284916,-0.930756
495151,5.41989e+006,304.41,0.8,0.8,0.8,-0.852264,0.0403868,0.52155
495207,5.41999e+006,293.11,0.8,0.8,0.8,-0.28092,0.568244,0.773423
494847,5.42075e+006,289.5,0.8,0.8,0.8,0.0576481,-0.0271546,-0.997968
494604,5.42087e+006,352.12,0.8,0.8,0.8,-0.0232051,0.0154984,-0.999611
494412,5.42041e+006,253.03,0.8,0.8,0.8,-0.00994179,-0.0107039,-0.999893
495093,5.41991e+006,313.84,0.8,0.8,0.8,0.303044,-0.235894,0.923319
493929,5.42e+006,257.47,0.8,0.8,0.8,-0.472031,-0.110614,0.874615
494892,5.42057e+006,315.59,0.8,0.8,0.8,0.0310347,0.0191302,-0.999335
494918,5.42035e+006,282.69,0.8,0.8,0.8,0.00731274,0.0983288,-0.995127
494999,5.42002e+006,275.44,0.8,0.8,0.8,-0.200849,-0.0640108,0.977529
494587,5.42006e+006,258.18,0.8,0.8,0.8,0.0555343,0.0475824,0.997322
493754,5.42096e+006,385.6,0.8,0.8,0.8,-0.0681698,-0.447071,-0.891897
494074,5.42089e+006,356.24,0.8,0.8,0.8,-0.00997406,0.141483,-0.98989
495036,5.42069e+006,290.53,0.8,0.8,0.8,0.0577236,-0.0594031,-0.996564
495184,5.42055e+006,301.27,0.8,0.8,0.8,0.0041295,0.217602,-0.976029
494804,5.42021e+006,255.93,0.8,0.8,0.8,-0.344669,-0.463458,0.816339
493748,5.42e+006,266.55,0.8,0.8,0.8,0.164151,-0.00982919,0.986386
494343,5.42045e+006,253.01,0.8,0.8,0.8,0.242057,0.329546,-0.912583
494843,5.42006e+006,252.44,0.8,0.8,0.8,-0.16981,-0.149015,0.974145
494446,5.42005e+006,298.28,0.8,0.8,0.8,0.0108427,0.117782,0.99298
495166,5.4202e+006,252.88,0.8,0.8,0.8,0.00804695,-0.0257657,0.999636
493675,5.4207e+006,344.52,0.8,0.8,0.8,-0.071513,0.215044,-0.973982
495162,5.42074e+006,320.72,0.8,0.8,0.8,-0.042232,0.0688493,-0.996733
494910,5.4206e+006,300.53,0.8,0.8,0.8,0.109617,-0.298512,-0.94809
494627,5.41993e+006,309.67,0.8,0.8,0.8,-0.152618,0.33331,0.930383
495011,5.42018e+006,252.68,0.8,0.8,0.8,-0.00186026,-0.0235868,0.99972
494000,5.41989e+006,253.6,0.8,0.8,0.8,0.00922659,0.00424386,0.999948
495207,5.42092e+006,321.61,0.8,0.8,0.8,-0.088976,-0.0636976,-0.993995
494160,5.41998e+006,294.17,0.8,0.8,0.8,0.205568,0.00959671,0.978596
494212,5.41994e+006,295.75,0.8,0.8,0.8,0.975772,-0.218769,-0.00304237
494140,5.42069e+006,261.04,0.8,0.8,0.8,0.0174886,0.223562,-0.974533
493893,5.42056e+006,270.53,0.8,0.8,0.8,0.371889,-0.552689,-0.745811
493817,5.42072e+006,337.18,0.8,0.8,0.8,-0.270378,0.351734,-0.896202
494162,5.41986e+006,290.82,0.8,0.8,0.8,-0.0526231,0.00199651,0.998612
494595,5.42097e+006,355.17,0.8,0.8,0.8,-0.0247136,0.0334768,-0.999134
494379,5.42034e+006,263.6,0.8,0.8,0.8,0.392321,0.0912412,-0.915292
494082,5.42041e+006,255.23,0.8,0.8,0.8,-0.0707824,-0.334559,-0.939713
493754,5.42001e+006,266.48,0.8,0.8,0.8,-0.230739,0.113415,0.966383
494783,5.42089e+006,346.56,0.8,0.8,0.8,-0.0314064,0.063195,-0.997507
495231,5.42002e+006,262.16,0.8,0.8,0.8,-0.9459,-0.323958,0.0180309
494508,5.42e+006,272.63,0.8,0.8,0.8,0.211627,0.437333,0.874044
493964,5.42093e+006,367.46,0.8,0.8,0.8,-0.115443,0.125491,-0.985355
495102,5.42037e+006,281.01,0.8,0.8,0.8,0.00327302,0.0880674,-0.996109
495207,5.42093e+006,320.98,0.8,0.8,0.8,-0.0841576,-0.0475569,-0.995317
494783,5.41987e+006,320.93,0.8,0.8,0.8,0.482499,0.385102,0.786697
494805,5.42069e+006,284.11,0.8,0.8,0.8,-0.00153285,0.360904,-0.932602
494485,5.42006e+006,279.62,0.8,0.8,0.8,0.39688,0.862928,0.312798
494300,5.42099e+006,362.85,0.8,0.8,0.8,-0.0116809,0.0402698,-0.999121
493761,5.42089e+006,377.61,0.8,0.8,0.8,-0.528413,0.134386,-0.838284
494623,5.42057e+006,285.55,0.8,0.8,0.8,0.0516033,0.561741,-0.825702
494910,5.42067e+006,274.67,0.8,0.8,0.8,-0.262168,0.478859,-0.837832
494752,5.41996e+006,270.94,0.8,0.8,0.8,0.804129,0.165582,0.570929
494245,5.42093e+006,359.89,0.8,0.8,0.8,-0.046331,0.131608,-0.990219
494296,5.42058e+006,251.07,0.8,0.8,0.8,-0.00158261,0.00237661,-0.999996
494811,5.41993e+006,291.23,0.8,0.8,0.8,0.433112,0.34403,0.833101
494585,5.42058e+006,286.57,0.8,0.8,0.8,0.156196,0.376981,-0.912956
493997,5.42057e+006,266.57,0.8,0.8,0.8,-0.460023,0.00491192,-0.887893
493687,5.42093e+006,391.02,0.8,0.8,0.8,-0.334951,-0.0374385,-0.941491
494349,5.4199e+006,307.65,0.8,0.8,0.8,0.287179,-0.608312,0.739922
494172,5.42047e+006,252.09,0.8,0.8,0.8,0.0360924,-0.0394935,-0.998568
494968,5.41994e+006,263.14,0.8,0.8,0.8,-0.29768,-0.254396,0.920147
493944,5.42017e+006,255.54,0.8,0.8,0.8,0.0069116,-3.75584e-005,0.999976
494089,5.41996e+006,279.2,0.8,0.8,0.8,-0.401658,0.652755,0.642325
493785,5.42011e+006,270.12,0.8,0.8,0.8,0.122073,0.321287,0.939081
495190,5.42033e+006,266.69,0.8,0.8,0.8,0.00392118,0.617726,-0.786384
494651,5.42046e+006,256.78,0.8,0.8,0.8,-0.574863,-0.697798,-0.42733
493860,5.42049e+006,265.68,0.8,0.8,0.8,-0.505506,0.27603,-0.817478
494092,5.42068e+006,266.04,0.8,0.8,0.8,-0.00139761,-0.299266,-0.954169
494396,5.42001e+006,295.54,0.8,0.8,0.8,-0.358538,-0.389923,0.848181
495219,5.42005e+006,254.96,0.8,0.8,0.8,-0.170631,0.0372296,0.984631
494701,5.42007e+006,252.92,0.8,0.8,0.8,0.0462545,0.04846,0.997754
493856,5.41998e+006,256.25,0.8,0.8,0.8,0.0520091,-0.0358177,0.998004
494545,5.41995e+006,309.93,0.8,0.8,0.8,-0.368799,-0.305247,0.877959
494419,5.42005e+006,289.34,0.8,0.8,0.8,-0.600051,0.404467,0.690178
493763,5.42068e+006,332.14,0.8,0.8,0.8,-0.290637,0.358522,-0.887126
493871,5.42057e+006,276.08,0.8,0.8,0.8,-0.0145506,0.210179,-0.977555
494950,5.42089e+006,339.27,0.8,0.8,0.8,-0.0645318,0.00460213,-0.997905
494139,5.42045e+006,265.65,0.8,0.8,0.8,-0.882789,-0.46221,0.0839374
495011,5.41989e+006,312.52,0.8,0.8,0.8,0.51717,0.408985,0.751842
495084,5.42064e+006,313,0.8,0.8,0.8,0.143598,-0.131556,-0.980853
494595,5.41987e+006,330.12,0.8,0.8,0.8,0.074347,0.281631,0.956638
494489,5.41994e+006,311.29,0.8,0.8,0.8,-0.725009,-0.172616,0.666757
494648,5.42018e+006,251.95,0.8,0.8,0.8,0.00995443,0.0101236,0.999899
494530,5.42007e+006,260.62,0.8,0.8,0.8,0.0458199,0.0490611,0.997744
494668,5.42002e+006,256.15,0.8,0.8,0.8,0.0332285,0.0557669,0.997891
494443,5.42039e+006,253.05,0.8,0.8,0.8,-0.0146589,-0.00838831,-0.999857
494501,5.42002e+006,281.39,0.8,0.8,0.8,-0.245435,-0.902235,-0.354588
495192,5.42072e+006,318.79,0.8,0.8,0.8,-0.0462331,0.0967378,-0.994236
494460,5.42039e+006,252.72,0.8,0.8,0.8,-0.0262173,-0.0241786,-0.999364
495030,5.42026e+006,259.01,0.8,0.8,0.8,0.000650467,-0.0901995,0.995924
494773,5.42095e+006,348.63,0.8,0.8,0.8,-0.0383194,-0.010499,-0.99921
493875,5.42024e+006,274.35,0.8,0.8,0.8,0.414177,-0.864996,0.283264
495229,5.42002e+006,255.94,0.8,0.8,0.8,-0.380459,0.427185,0.820221
494303,5.42046e+006,252.88,0.8,0.8,0.8,-0.00814153,-0.0271365,-0.999599
494292,5.42051e+006,252.81,0.8,0.8,0.8,-0.00308753,0.022923,-0.999732
494100,5.42096e+006,365.04,0.8,0.8,0.8,-0.0587115,0.128052,-0.990028
494150,5.42072e+006,264.21,0.8,0.8,0.8,-0.106263,0.353723,-0.929294
494600,5.41995e+006,280.3,0.8,0.8,0.8,0.994804,-0.10155,-0.00724597
494394,5.42043e+006,253.29,0.8,0.8,0.8,-0.029761,-0.00883976,-0.999518
493815,5.42008e+006,264.83,0.8,0.8,0.8,0.331418,-0.44994,0.829286
493968,5.41989e+006,259.58,0.8,0.8,0.8,0.185602,0.0774819,0.979566
495136,5.41996e+006,290.95,0.8,0.8,0.8,0.0262987,0.587934,0.808481
494585,5.42054e+006,861.14,0.8,0.8,0.8,-0.696333,-0.503609,0.511369
494951,5.41993e+006,270.09,0.8,0.8,0.8,0.15631,-0.149068,0.976394
494966,5.42057e+006,310.21,0.8,0.8,0.8,-0.113692,0.23993,-0.96411
494918,5.41984e+006,303.04,0.8,0.8,0.8,-0.0387818,0.318884,0.947
494349,5.42001e+006,289.69,0.8,0.8,0.8,-0.00128406,0.108516,0.994094
493834,5.42015e+006,262.01,0.8,0.8,0.8,0.445218,0.221218,0.867666
495003,5.42091e+006,336.81,0.8,0.8,0.8,-0.0458154,0.00940065,-0.998906
494327,5.42075e+006,293.8,0.8,0.8,0.8,0.0990248,0.525678,-0.844901
494502,5.42065e+006,296.74,0.8,0.8,0.8,0.31612,0.379127,-0.869673
494234,5.41994e+006,291.33,0.8,0.8,0.8,-0.0284727,0.0461027,0.998531
493793,5.42093e+006,372.47,0.8,0.8,0.8,-0.120389,0.133411,-0.983722
495060,5.4207e+006,311.69,0.8,0.8,0.8,0.351007,0.345672,-0.870233
494749,5.42024e+006,259.62,0.8,0.8,0.8,0.657619,0.664417,0.355088
495239,5.41985e+006,331.02,0.8,0.8,0.8,-0.283302,-0.71246,0.641982
494352,5.42002e+006,289.24,0.8,0.8,0.8,0.000671022,0.103443,0.994635
494027,5.42045e+006,255.95,0.8,0.8,0.8,-0.0873969,-0.412712,-0.906659
494974,5.42094e+006,338.26,0.8,0.8,0.8,-0.0698101,-0.0153602,-0.997442
493655,5.42099e+006,386.32,0.8,0.8,0.8,-0.627964,-0.722344,-0.289621
493920,5.42087e+006,358.53,0.8,0.8,0.8,-0.0589277,0.185738,-0.980831
493675,5.4205e+006,292.65,0.8,0.8,0.8,-0.19166,0.23623,-0.952608
493805,5.42073e+006,340.38,0.8,0.8,0.8,-0.149378,0.239063,-0.959445
494050,5.42063e+006,265.12,0.8,0.8,0.8,0.300721,-0.122297,-0.945838
494010,5.41981e+006,253.63,0.8,0.8,0.8,-0.0119967,0.00931614,0.999885
494853,5.41983e+006,334.39,0.8,0.8,0.8,0.0790923,0.298422,0.951151
493871,5.42011e+006,258.67,0.8,0.8,0.8,0.0265851,0.00121336,0.999646
494208,5.42048e+006,267.06,0.8,0.8,0.8,-0.849239,0.419123,-0.321138
494375,5.42012e+006,272.12,0.8,0.8,0.8,0.368982,-0.0926858,0.924804
494255,5.42032e+006,257.05,0.8,0.8,0.8,-0.283727,-0.165187,-0.94457
494752,5.42002e+006,253.22,0.8,0.8,0.8,0.0327983,0.0296157,0.999023
494440,5.42006e+006,274.73,0.8,0.8,0.8,-0.71961,-0.0686542,0.690976
494692,5.42053e+006,264.89,0.8,0.8,0.8,-0.18481,0.204791,-0.9612
495138,5.42094e+006,326.58,0.8,0.8,0.8,-0.07687,-0.0322328,-0.99652
495204,5.42041e+006,282.88,0.8,0.8,0.8,-0.0180035,0.114274,-0.993286
495250,5.42039e+006,278.32,0.8,0.8,0.8,-0.0594071,0.141825,-0.988108
494248,5.42063e+006,252.82,0.8,0.8,0.8,-0.258177,-0.202341,-0.94467
493801,5.42016e+006,269.6,0.8,0.8,0.8,0.198645,-0.0643552,0.977956
494993,5.41989e+006,293.81,0.8,0.8,0.8,0.0397811,0.980298,0.193477
495140,5.42055e+006,301.18,0.8,0.8,0.8,-0.0120208,0.254098,-0.967104
493711,5.42006e+006,272.49,0.8,0.8,0.8,0.284439,-0.197362,0.938159
494581,5.42068e+006,330.54,0.8,0.8,0.8,-0.0574859,0.105673,-0.992738
494046,5.42052e+006,253.42,0.8,0.8,0.8,-0.150635,-4.29377e-005,-0.98859
494873,5.41986e+006,324.51,0.8,0.8,0.8,0.930795,-0.0120302,0.365344
494202,5.42046e+006,270.85,0.8,0.8,0.8,0.918098,-0.361045,0.163531
494058,5.41991e+006,278.9,0.8,0.8,0.8,0.33128,0.670069,0.664275
494390,5.42021e+006,261.28,0.8,0.8,0.8,0.0335168,0.0682253,0.997107
494304,5.41985e+006,299.55,0.8,0.8,0.8,-0.142483,0.391837,0.908935
495156,5.421e+006,322.99,0.8,0.8,0.8,-0.0646178,-0.0596471,-0.996126
494509,5.42057e+006,254.23,0.8,0.8,0.8,0.446663,0.407782,-0.79637
494261,5.42068e+006,254.94,0.8,0.8,0.8,0.104381,-0.0834783,-0.991028
494418,5.42071e+006,292.68,0.8,0.8,0.8,0.375587,0.382128,-0.844341
494097,5.41988e+006,291.66,0.8,0.8,0.8,0.505471,0.750485,0.425761
494326,5.42005e+006,286.12,0.8,0.8,0.8,0.0194914,0.0886822,0.995869
494305,5.42087e+006,351.3,0.8,0.8,0.8,-0.00229547,0.211435,-0.977389
493941,5.42014e+006,255.39,0.8,0.8,0.8,0.0172931,-0.00206882,0.999848
495143,5.42039e+006,282.23,0.8,0.8,0.8,-0.0472539,0.0877337,-0.995023
495123,5.42096e+006,327.29,0.8,0.8,0.8,-0.0760089,-0.0505248,-0.995826
494731,5.42088e+006,348.54,0.8,0.8,0.8,-0.286197,-0.182433,-0.940643
495167,5.42038e+006,281.46,0.8,0.8,0.8,-0.0193771,0.107261,-0.994042
494283,5.42061e+006,275.08,0.8,0.8,0.8,0.330647,-0.520679,0.787125
494129,5.42084e+006,338.66,0.8,0.8,0.8,-0.108187,0.424126,-0.899118
494217,5.4201e+006,281.04,0.8,0.8,0.8,-0.0208917,0.100956,0.994672
493985,5.42006e+006,252.88,0.8,0.8,0.8,-0.00303119,0.348185,0.937421
494856,5.42093e+006,345.17,0.8,0.8,0.8,-0.0515854,0.000201638,-0.998669
494429,5.42046e+006,252.52,0.8,0.8,0.8,-0.00500681,0.00103416,-0.999987
494225,5.42017e+006,272.5,0.8,0.8,0.8,0.0464716,0.199062,0.978884
494933,5.41983e+006,338.52,0.8,0.8,0.8,-0.0928238,0.571266,-0.815499
494658,5.42035e+006,254.87,0.8,0.8,0.8,-0.356212,-0.6693,-0.652035
493716,5.42064e+006,325.98,0.8,0.8,0.8,-0.156604,0.352454,-0.922633
495156,5.41985e+006,321.44,0.8,0.8,0.8,-0.0125433,0.13412,0.990886
494628,5.41983e+006,339.27,0.8,0.8,0.8,-0.251039,0.433061,0.8657
494807,5.42072e+006,291.18,0.8,0.8,0.8,-0.063463,0.00723095,-0.997958
494956,5.42026e+006,259.23,0.8,0.8,0.8,0.108879,-0.177287,0.978118
495219,5.41993e+006,324.36,0.8,0.8,0.8,-0.437882,0.69892,0.565483
494788,5.42013e+006,265.21,0.8,0.8,0.8,-0.148969,0.160566,0.975719
494826,5.41992e+006,294.46,0.8,0.8,0.8,-0.165129,0.374904,0.912239
494677,5.41987e+006,305.92,0.8,0.8,0.8,-0.0261709,0.420572,0.906882
493908,5.42035e+006,265.51,0.8,0.8,0.8,-0.0420058,-0.52638,-0.849211
493951,5.42057e+006,259.76,0.8,0.8,0.8,0.448793,-0.0961342,-0.88845
494569,5.42001e+006,265.15,0.8,0.8,0.8,0.350176,0.864117,0.361496
495082,5.42087e+006,331.12,0.8,0.8,0.8,-0.0797866,0.00624527,-0.996792
495033,5.42019e+006,252.9,0.8,0.8,0.8,0.00172413,-0.0326773,0.999464
494421,5.42037e+006,253.2,0.8,0.8,0.8,-0.00885238,-0.0135121,-0.99987
494741,5.42053e+006,262.93,0.8,0.8,0.8,0.00220828,-0.10026,-0.994959
494625,5.42074e+006,333.66,0.8,0.8,0.8,0.108623,0.498599,-0.86
495152,5.41993e+006,314.28,0.8,0.8,0.8,0.10544,0.584458,0.804544
495170,5.42098e+006,322.86,0.8,0.8,0.8,-0.0588126,-0.0343378,-0.997678
494552,5.41994e+006,290.48,0.8,0.8,0.8,0.32586,0.524891,-0.786324
493692,5.42044e+006,282.25,0.8,0.8,0.8,0.103695,-0.0977731,-0.989792
494692,5.42062e+006,289.12,0.8,0.8,0.8,-0.577776,0.112223,-0.808443
494966,5.41988e+006,311.22,0.8,0.8,0.8,-0.312952,0.665751,0.677375
494540,5.4204e+006,252.5,0.8,0.8,0.8,0.00710987,0.00143554,-0.999974
494527,5.42019e+006,256.36,0.8,0.8,0.8,0.0664182,0.0381942,0.997061
494876,5.42018e+006,256.65,0.8,0.8,0.8,0.0244096,-0.00849809,0.999666
494498,5.42047e+006,252.53,0.8,0.8,0.8,0.0105365,-0.000183608,-0.999945
494937,5.41984e+006,332.25,0.8,0.8,0.8,0.0256885,0.361341,0.93208
495044,5.42013e+006,251.49,0.8,0.8,0.8,0.00399099,0.0182823,0.999825
494705,5.42024e+006,252.42,0.8,0.8,0.8,0.0135627,-0.00158716,0.999907
494580,5.41994e+006,304.82,0.8,0.8,0.8,0.49519,0.507729,0.704981
493902,5.41994e+006,282.72,0.8,0.8,0.8,-0.596786,-0.444294,0.668168
494992,5.42094e+006,337.16,0.8,0.8,0.8,-0.057542,-0.0137035,-0.998249
494744,5.41982e+006,333.5,0.8,0.8,0.8,0.263541,0.42921,0.863901
494232,5.41983e+006,293.88,0.8,0.8,0.8,-0.0484971,-0.0131903,0.998736
494728,5.41988e+006,322.43,0.8,0.8,0.8,-0.401616,0.449554,0.797876
494516,5.41988e+006,308.66,0.8,0.8,0.8,0.292076,0.447967,0.844995
494868,5.42059e+006,297.65,0.8,0.8,0.8,0.200667,-0.0968266,-0.974863
493692,5.41999e+006,266.29,0.8,0.8,0.8,-0.260347,-0.319723,0.911042
495060,5.42089e+006,333.03,0.8,0.8,0.8,-0.071779,0.0181319,-0.997256
494050,5.41982e+006,287.73,0.8,0.8,0.8,-0.136637,0.504576,0.852487
494643,5.42088e+006,351.52,0.8,0.8,0.8,-0.020775,0.0127482,-0.999703
493708,5.42062e+006,318.41,0.8,0.8,0.8,-0.266499,0.442378,-0.856318
494891,5.42069e+006,278.22,0.8,0.8,0.8,-0.048435,0.210483,-0.976397
494245,5.42024e+006,265.33,0.8,0.8,0.8,-0.0659917,0.341798,0.937454
493995,5.42004e+006,253.34,0.8,0.8,0.8,-0.125874,-0.159586,0.979126
494039,5.42057e+006,265.49,0.8,0.8,0.8,-0.214272,0.43601,-0.874061
494939,5.42017e+006,252.09,0.8,0.8,0.8,-0.00251936,-0.0185347,0.999825
493897,5.42087e+006,360.09,0.8,0.8,0.8,-0.0384581,0.14208,-0.989108
494883,5.42062e+006,261.8,0.8,0.8,0.8,0.0857797,-0.0970169,-0.991579
494546,5.41984e+006,326.2,0.8,0.8,0.8,0.111531,0.25845,0.959565
494394,5.42006e+006,289.2,0.8,0.8,0.8,0.950864,0.00261779,-0.309599
494400,5.42052e+006,252.68,0.8,0.8,0.8,-0.000352608,0.016112,-0.99987
495038,5.42013e+006,251.5,0.8,0.8,0.8,0.00753539,0.0209998,0.999751
494980,5.41983e+006,309.92,0.8,0.8,0.8,-0.681174,0.582846,0.443049
493889,5.42055e+006,272.98,0.8,0.8,0.8,-0.360244,0.353609,-0.863241
494251,5.42002e+006,287.45,0.8,0.8,0.8,-0.0351593,0.0456006,0.998341
494660,5.42057e+006,288.79,0.8,0.8,0.8,0.273766,0.442175,-0.854127
494561,5.42061e+006,306.72,0.8,0.8,0.8,-0.179607,-0.0129095,-0.983654
494862,5.41992e+006,298.78,0.8,0.8,0.8,0.09341,0.447832,0.889225
494916,5.41993e+006,261.33,0.8,0.8,0.8,-0.20409,0.828613,0.521294
493926,5.42099e+006,372.4,0.8,0.8,0.8,-0.00442231,0.0322573,-0.99947
494219,5.42075e+006,279.14,0.8,0.8,0.8,-0.011294,0.50439,-0.863402
494156,5.42022e+006,268.06,0.8,0.8,0.8,0.0220506,0.0779219,0.996716
493996,5.41982e+006,253.64,0.8,0.8,0.8,-0.156621,-0.124904,0.979729
494224,5.41982e+006,293.4,0.8,0.8,0.8,-0.0518135,-0.0172483,0.998508
493738,5.41983e+006,253.89,0.8,0.8,0.8,0.00182547,0.000569951,0.999998
494576,5.41985e+006,326.71,0.8,0.8,0.8,-0.411275,-0.272586,0.869799
494165,5.42056e+006,252.89,0.8,0.8,0.8,0.00569192,-0.0080119,-0.999952
494141,5.42045e+006,265.72,0.8,0.8,0.8,-0.995477,-0.0469013,-0.0826243
495048,5.41985e+006,322.6,0.8,0.8,0.8,0.0633929,0.397053,0.915604
493854,5.42037e+006,262.34,0.8,0.8,0.8,-0.234911,0.0635789,-0.969935
493872,5.42095e+006,372.55,0.8,0.8,0.8,-0.00248193,0.0905714,-0.995887
493916,5.41983e+006,253.75,0.8,0.8,0.8,0.0757693,-0.0243762,0.996827
495055,5.41985e+006,313.09,0.8,0.8,0.8,-0.754799,0.245162,0.60842
494244,5.42003e+006,286.87,0.8,0.8,0.8,-0.0328936,0.0640397,0.997405
494172,5.42092e+006,359.3,0.8,0.8,0.8,-0.00990149,0.143536,-0.989596
494855,5.41993e+006,295.35,0.8,0.8,0.8,-0.127349,0.350144,0.927998
494667,5.42052e+006,263.12,0.8,0.8,0.8,-0.157163,-0.243962,-0.956965
493927,5.42045e+006,261.17,0.8,0.8,0.8,0.236973,-0.395524,-0.887358
494075,5.42048e+006,260.33,0.8,0.8,0.8,0.0636205,-0.360041,-0.930765
495065,5.41989e+006,295.35,0.8,0.8,0.8,-0.0487061,0.270742,0.961419
495126,5.41983e+006,323.44,0.8,0.8,0.8,-0.0306011,0.159376,0.986744
494470,5.41988e+006,305.8,0.8,0.8,0.8,-0.0395864,0.114515,0.992632
494374,5.42059e+006,258.38,0.8,0.8,0.8,-0.527526,0.849414,0.0145897
494123,5.41997e+006,285.64,0.8,0.8,0.8,0.0986557,0.0223246,0.994871
494952,5.42003e+006,257.27,0.8,0.8,0.8,0.343737,0.713625,0.610397
494769,5.42075e+006,300.76,0.8,0.8,0.8,-0.276116,0.453109,-0.847615
494311,5.42015e+006,276.08,0.8,0.8,0.8,0.590142,-0.64407,0.48673
494799,5.41998e+006,266.6,0.8,0.8,0.8,-0.00383056,0.971825,0.235674
494878,5.42037e+006,283.77,0.8,0.8,0.8,0.389738,0.155096,-0.907772
493926,5.42061e+006,266.14,0.8,0.8,0.8,-0.0527577,0.247492,-0.967452
494057,5.42015e+006,252.87,0.8,0.8,0.8,0.000314811,-0.00519159,0.999986
493801,5.42057e+006,279.34,0.8,0.8,0.8,0.301869,-0.064193,-0.951186
493712,5.42097e+006,373.6,0.8,0.8,0.8,0.279563,-0.041076,-0.959248
494893,5.42065e+006,263.25,0.8,0.8,0.8,-0.0598424,0.178974,-0.982032
495115,5.42057e+006,873.35,0.8,0.8,0.8,-0.209892,0.802783,0.558108
494806,5.42069e+006,286.67,0.8,0.8,0.8,-0.0271717,0.327963,-0.9443
494444,5.41986e+006,307.44,0.8,0.8,0.8,0.991423,-0.0486908,-0.121287
494123,5.42025e+006,266.21,0.8,0.8,0.8,0.0412723,0.223431,0.973846
494688,5.42068e+006,306.31,0.8,0.8,0.8,-0.570743,0.273612,-0.774202
494570,5.42025e+006,252.36,0.8,0.8,0.8,0.0342694,0.0192529,0.999227
494902,5.42049e+006,296.95,0.8,0.8,0.8,-0.0506761,0.17697,-0.982911
494513,5.42058e+006,265.25,0.8,0.8,0.8,0.408306,0.351747,-0.842354
493889,5.42054e+006,265.99,0.8,0.8,0.8,0.134615,0.286119,-0.948691
494804,5.42004e+006,252.1,0.8,0.8,0.8,0.0164874,0.0112289,0.999801
493696,5.42097e+006,385.12,0.8,0.8,0.8,-0.582387,-0.520331,-0.624565
494474,5.42033e+006,253.12,0.8,0.8,0.8,-0.0126463,-0.0192207,-0.999735
494704,5.41991e+006,312.04,0.8,0.8,0.8,0.807909,0.34666,0.47656
495154,5.41996e+006,269.11,0.8,0.8,0.8,-0.0736412,0.660325,0.747361
493983,5.42042e+006,253.27,0.8,0.8,0.8,0.0971804,0.290722,-0.95186
495228,5.42033e+006,264.14,0.8,0.8,0.8,-0.163189,0.320099,-0.933224
494865,5.42013e+006,258.04,0.8,0.8,0.8,0.704918,0.48113,0.521157
494542,5.4199e+006,313.46,0.8,0.8,0.8,-0.0535028,-0.378018,0.924251
494006,5.42023e+006,274.93,0.8,0.8,0.8,0.361655,-0.378028,0.852233
493899,5.42012e+006,256.15,0.8,0.8,0.8,0.024382,0.0016663,0.999701
494262,5.4202e+006,265.09,0.8,0.8,0.8,0.0432743,0.087928,0.995186
